1.265	1.259	1.249	1.237	1.223	1.208	1.193	1.183	1.176	1.172	1.178	1.187	1.144	1.078	1.076	1.089	1.132	1.346	1.483	1.459	1.313	1.312	1.343	1.339	1.359	1.379	1.391	1.403	1.412	1.423	1.433	1.444	1.456	1.470	1.484	1.500	1.527	1.533	1.519	1.518	1.522	1.527	1.532	1.553	1.551	1.548	1.556	1.568	1.583	1.595	1.608	1.624	1.646	1.664	1.681	1.700	1.719	1.735	1.749	1.796	1.841	1.811	1.824	1.842	1.858	1.875	1.887	1.899	1.910	1.915	1.923	1.927	1.926	1.926	1.924	1.923	1.918	1.909	1.898	1.887	1.875	1.868	1.865	1.867	1.870	1.871	1.871	1.870	1.848	1.919	2.131	2.209	2.186	2.023	1.823	1.837	1.879	1.891	1.884	1.880	1.880	1.883	1.888	1.894	1.903	1.912	1.920	1.929	1.943	1.960	1.977	1.993	2.052	2.094	2.050	2.170	2.316	2.309	2.168	2.102	2.052	2.029	2.027	2.027	2.029	2.032	2.037	2.045	2.055	2.086	2.164	2.117	2.090	2.094	2.102	2.154	2.230	2.152	2.160	2.245	2.192	2.165	2.173	2.179	2.202	2.220	2.228	2.242	2.249	2.256	2.266	2.282	2.302	2.322	2.341	2.362	2.386	2.408	2.430	2.449	2.468	2.491	2.513	2.532	2.548	2.562	2.581	2.597	2.610	2.621	2.640	2.709	2.688	2.653	2.662	2.675	2.689	2.699	2.710	2.722	2.733	2.738	2.740	2.740	2.754	2.904	3.025	2.971	2.804	2.767	2.783	2.802	2.823	2.846	2.872	2.895	2.916	2.933	2.951	2.972	2.993	3.016	3.036	3.057	3.078	3.097	3.115	3.181	3.318	3.326	3.232	3.208	3.238	3.338	3.334	3.281	3.293	3.310	3.326	3.344	3.364	3.383	3.399	3.414	3.484	3.446	3.394	3.512	3.522	3.428	3.433	3.438	3.441	3.449	3.459	3.473	3.488	3.510	3.556	3.591	3.626	3.634	3.633	3.644	3.656	3.667	3.677	3.687	3.700	3.713	3.725	3.779	3.917	3.873	3.765	3.761	3.784	3.823	3.784	3.773	3.773	3.772	3.774	3.791	3.807	3.822	3.835	3.845	3.856	3.868	3.883	3.896	3.909	3.927	3.951	3.953	3.963	3.973	3.983	4.012	4.187	4.287	4.200	4.078	4.071	4.086	4.104	4.121	4.135	4.149	4.161	4.176	4.197	4.219	4.243	4.320	4.356	4.314	4.334	4.364	4.448	4.526	4.500	4.488	4.520	4.552	4.581	4.607	4.634	4.661	4.680	4.709	4.796	4.792	4.776	4.794	4.884	5.016	4.966	4.868	4.874	4.925	5.018	4.959	4.903	4.896	4.892	4.888	4.883	4.877	4.868	4.861	4.855	4.850	4.846	4.846	4.850	4.853	4.855	4.852	4.844	4.838	4.831	4.823	4.818	4.810	4.793	4.785	4.785	4.774	4.760	4.747	4.737	4.729	4.718	4.706	4.695	4.680	4.663	4.649	4.627	4.598	4.573	4.548	4.523	4.497	4.487	4.461	4.427	4.422	4.496	4.417	4.334	4.317	4.291	4.271	4.256	4.213	4.185	4.158	4.133	4.109	4.080	4.052	4.050	4.026	3.965	3.929	3.886	3.849	3.813	3.780	3.740	3.701	3.664	3.626	3.657	3.877	4.006	4.016	3.941	3.746	3.458	3.360	3.333	3.305	3.280	3.258	3.235	3.215	3.191	3.166	3.140	3.114	3.089	3.061	3.030	2.999	2.973	2.956	2.932	2.905	2.877	2.848	2.813	2.777	2.746	2.721	2.703	2.677	2.661	2.633	2.586	2.556	2.526	2.493	2.458	2.422	2.384	2.348	2.313	2.275	2.237	2.199	2.161	2.119	2.077	2.113	2.214	2.115	2.000	2.070	1.998	1.838	1.776	1.734	1.695	1.655	1.615
1.235	1.228	1.217	1.204	1.189	1.175	1.161	1.149	1.140	1.134	1.140	1.157	1.137	1.077	1.042	1.050	1.080	1.157	1.250	1.264	1.248	1.297	1.311	1.316	1.332	1.347	1.359	1.368	1.378	1.388	1.398	1.408	1.420	1.435	1.449	1.463	1.472	1.476	1.480	1.484	1.489	1.495	1.505	1.584	1.571	1.519	1.527	1.539	1.553	1.566	1.581	1.598	1.616	1.634	1.653	1.671	1.690	1.707	1.721	1.738	1.755	1.773	1.793	1.809	1.827	1.844	1.857	1.868	1.876	1.876	1.884	1.892	1.890	1.887	1.883	1.880	1.874	1.863	1.851	1.840	1.828	1.819	1.816	1.818	1.821	1.821	1.823	1.826	1.822	1.868	2.061	2.148	2.115	1.939	1.811	1.829	1.842	1.843	1.839	1.838	1.839	1.842	1.849	1.857	1.865	1.875	1.883	1.890	1.903	1.917	1.934	1.950	1.980	2.002	1.994	2.008	2.048	2.052	2.128	2.225	2.127	2.000	1.991	1.992	1.992	1.994	1.999	2.008	2.020	2.035	2.053	2.058	2.063	2.065	2.070	2.093	2.137	2.101	2.127	2.220	2.161	2.125	2.131	2.143	2.208	2.256	2.199	2.204	2.212	2.219	2.227	2.239	2.255	2.273	2.292	2.312	2.334	2.357	2.378	2.399	2.420	2.443	2.464	2.482	2.495	2.505	2.525	2.540	2.552	2.565	2.598	2.730	2.692	2.606	2.611	2.632	2.646	2.657	2.668	2.680	2.688	2.692	2.695	2.698	2.721	2.916	3.031	2.988	2.807	2.753	2.757	2.770	2.793	2.817	2.844	2.867	2.886	2.903	2.920	2.939	2.960	2.982	3.002	3.025	3.049	3.068	3.086	3.104	3.135	3.153	3.160	3.175	3.193	3.216	3.232	3.247	3.266	3.292	3.318	3.325	3.344	3.387	3.389	3.391	3.410	3.395	3.366	3.393	3.419	3.464	3.436	3.409	3.415	3.425	3.437	3.448	3.463	3.497	3.542	3.627	3.762	3.723	3.601	3.591	3.603	3.621	3.641	3.654	3.666	3.678	3.692	3.715	3.791	3.769	3.728	3.738	3.848	3.951	3.838	3.751	3.751	3.751	3.755	3.766	3.780	3.794	3.807	3.821	3.834	3.847	3.861	3.872	3.885	3.899	3.913	3.923	3.932	3.943	3.958	3.976	4.044	4.110	4.082	4.123	4.075	4.069	4.084	4.099	4.109	4.122	4.142	4.160	4.176	4.199	4.221	4.271	4.297	4.285	4.308	4.356	4.557	4.668	4.592	4.473	4.493	4.524	4.554	4.581	4.609	4.636	4.656	4.684	4.781	4.762	4.743	4.759	4.780	4.811	4.818	4.823	4.837	4.852	4.872	4.870	4.867	4.862	4.858	4.852	4.844	4.837	4.829	4.823	4.817	4.811	4.806	4.810	4.814	4.817	4.817	4.812	4.803	4.797	4.792	4.785	4.780	4.752	4.733	4.723	4.729	4.735	4.722	4.706	4.698	4.692	4.680	4.668	4.661	4.648	4.628	4.607	4.588	4.564	4.538	4.510	4.482	4.503	4.603	4.557	4.408	4.375	4.430	4.357	4.289	4.266	4.238	4.208	4.178	4.153	4.129	4.104	4.081	4.056	4.025	3.995	3.967	3.940	3.911	3.879	3.863	3.859	3.778	3.733	3.694	3.656	3.621	3.584	3.697	3.956	4.046	4.049	3.982	3.828	3.503	3.322	3.291	3.263	3.240	3.218	3.196	3.174	3.151	3.125	3.099	3.072	3.049	3.020	2.988	2.958	2.947	3.001	2.936	2.861	2.833	2.804	2.768	2.735	2.704	2.678	2.661	2.634	2.607	2.575	2.537	2.512	2.484	2.453	2.419	2.383	2.346	2.309	2.272	2.236	2.209	2.174	2.129	2.089	2.047	2.032	2.063	1.998	2.045	2.160	2.095	1.871	1.744	1.701	1.660	1.617	1.579
1.205	1.197	1.185	1.172	1.159	1.145	1.129	1.116	1.105	1.097	1.142	1.197	1.129	1.099	1.054	1.039	1.117	1.134	1.216	1.345	1.297	1.269	1.274	1.282	1.297	1.311	1.322	1.332	1.343	1.353	1.364	1.374	1.386	1.401	1.414	1.424	1.434	1.441	1.446	1.452	1.458	1.462	1.469	1.498	1.501	1.490	1.498	1.511	1.526	1.540	1.555	1.572	1.588	1.604	1.624	1.643	1.661	1.677	1.694	1.710	1.726	1.744	1.763	1.788	1.826	1.903	1.877	1.837	1.842	1.841	1.848	1.856	1.853	1.849	1.845	1.839	1.829	1.816	1.803	1.791	1.779	1.771	1.770	1.772	1.772	1.771	1.775	1.776	1.775	1.778	1.854	1.943	1.905	1.801	1.787	1.794	1.796	1.796	1.794	1.795	1.798	1.801	1.808	1.817	1.827	1.837	1.846	1.854	1.864	1.875	1.890	1.912	2.012	2.051	1.960	1.952	1.947	1.955	2.082	2.192	2.098	1.963	1.954	1.954	1.955	1.957	1.965	1.975	1.986	1.999	2.013	2.025	2.032	2.034	2.037	2.036	2.042	2.054	2.067	2.087	2.089	2.094	2.100	2.110	2.152	2.186	2.159	2.168	2.175	2.180	2.187	2.197	2.209	2.225	2.243	2.259	2.282	2.312	2.330	2.352	2.372	2.391	2.410	2.429	2.444	2.456	2.472	2.484	2.497	2.509	2.524	2.569	2.569	2.550	2.559	2.589	2.605	2.616	2.627	2.637	2.645	2.648	2.653	2.658	2.667	2.759	2.875	2.825	2.778	2.868	2.792	2.742	2.769	2.789	2.815	2.838	2.859	2.876	2.890	2.907	2.927	2.949	2.972	2.994	3.017	3.037	3.053	3.072	3.091	3.111	3.128	3.146	3.163	3.181	3.199	3.222	3.249	3.345	3.423	3.346	3.332	3.421	3.392	3.369	3.381	3.383	3.362	3.346	3.384	3.496	3.433	3.382	3.390	3.402	3.414	3.427	3.451	3.491	3.529	3.684	3.823	3.797	3.624	3.556	3.566	3.576	3.596	3.621	3.635	3.646	3.660	3.671	3.680	3.690	3.698	3.710	3.809	3.905	3.804	3.726	3.726	3.729	3.733	3.740	3.751	3.763	3.776	3.789	3.803	3.817	3.831	3.845	3.858	3.873	3.886	3.894	3.903	3.915	3.933	3.954	3.965	3.963	3.970	4.018	4.023	4.050	4.071	4.081	4.089	4.105	4.189	4.190	4.158	4.180	4.202	4.220	4.239	4.260	4.284	4.330	4.519	4.626	4.545	4.440	4.463	4.495	4.524	4.552	4.582	4.607	4.628	4.651	4.679	4.694	4.710	4.725	4.738	4.752	4.768	4.785	4.800	4.814	4.826	4.832	4.831	4.825	4.819	4.813	4.806	4.797	4.789	4.784	4.808	4.832	4.782	4.775	4.778	4.778	4.786	4.790	4.762	4.755	4.750	4.744	4.740	4.707	4.696	4.682	4.683	4.698	4.685	4.667	4.690	4.696	4.652	4.638	4.628	4.613	4.593	4.574	4.553	4.528	4.500	4.470	4.440	4.518	4.662	4.617	4.415	4.321	4.304	4.275	4.244	4.214	4.209	4.222	4.140	4.098	4.073	4.050	4.025	3.998	3.969	3.940	3.911	3.885	3.860	3.829	3.824	3.846	3.733	3.688	3.651	3.613	3.577	3.541	3.659	3.918	4.007	4.009	3.942	3.791	3.466	3.280	3.252	3.225	3.199	3.177	3.157	3.134	3.110	3.084	3.053	3.013	2.992	2.970	2.937	2.909	2.924	3.021	2.932	2.815	2.785	2.759	2.727	2.695	2.667	2.649	2.627	2.591	2.561	2.530	2.498	2.471	2.441	2.411	2.379	2.345	2.308	2.269	2.233	2.200	2.220	2.200	2.099	2.056	2.015	1.974	1.940	1.906	1.963	2.069	2.002	1.803	1.707	1.662	1.614	1.568	1.540
1.176	1.168	1.156	1.142	1.125	1.106	1.092	1.084	1.074	1.066	1.089	1.119	1.089	1.094	1.090	1.080	1.117	1.150	1.288	1.406	1.302	1.230	1.237	1.247	1.261	1.274	1.285	1.295	1.306	1.318	1.329	1.341	1.354	1.367	1.375	1.380	1.392	1.405	1.411	1.418	1.426	1.427	1.437	1.449	1.457	1.465	1.473	1.486	1.500	1.517	1.546	1.551	1.563	1.577	1.596	1.615	1.632	1.649	1.667	1.684	1.701	1.718	1.758	1.831	1.865	2.003	1.947	1.815	1.807	1.813	1.818	1.818	1.815	1.812	1.805	1.795	1.782	1.767	1.753	1.741	1.733	1.728	1.728	1.728	1.727	1.725	1.726	1.727	1.728	1.728	1.730	1.739	1.736	1.736	1.743	1.750	1.752	1.753	1.756	1.765	1.757	1.759	1.766	1.777	1.788	1.797	1.806	1.816	1.826	1.836	1.849	1.867	1.930	1.955	1.907	1.905	1.905	1.905	1.934	1.987	1.944	1.914	1.915	1.917	1.919	1.924	1.932	1.936	1.939	1.949	1.961	1.980	1.996	2.000	2.004	2.009	2.014	2.022	2.030	2.039	2.050	2.060	2.067	2.076	2.091	2.105	2.117	2.127	2.133	2.138	2.146	2.154	2.171	2.231	2.228	2.213	2.243	2.336	2.308	2.305	2.323	2.339	2.356	2.372	2.389	2.405	2.418	2.430	2.443	2.454	2.466	2.478	2.493	2.509	2.526	2.551	2.582	2.592	2.587	2.592	2.600	2.608	2.615	2.620	2.625	2.632	2.657	2.658	2.722	2.832	2.761	2.726	2.810	2.785	2.784	2.809	2.830	2.848	2.861	2.876	2.896	2.917	2.941	2.963	2.990	3.015	3.016	3.037	3.055	3.076	3.097	3.124	3.200	3.198	3.177	3.197	3.231	3.370	3.459	3.351	3.303	3.337	3.336	3.343	3.355	3.365	3.367	3.359	3.353	3.366	3.361	3.360	3.368	3.380	3.396	3.422	3.455	3.479	3.498	3.585	3.719	3.697	3.561	3.529	3.539	3.547	3.558	3.586	3.609	3.619	3.630	3.644	3.654	3.663	3.673	3.709	3.731	3.718	3.708	3.702	3.704	3.708	3.711	3.716	3.723	3.731	3.743	3.758	3.774	3.789	3.803	3.816	3.828	3.843	3.856	3.865	3.876	3.890	3.911	3.922	3.898	3.880	3.887	3.904	3.933	3.987	4.043	4.063	4.070	4.085	4.146	4.152	4.139	4.160	4.180	4.198	4.216	4.236	4.261	4.289	4.357	4.424	4.398	4.399	4.433	4.465	4.495	4.523	4.552	4.578	4.601	4.623	4.643	4.660	4.675	4.689	4.701	4.714	4.727	4.743	4.760	4.773	4.786	4.792	4.792	4.788	4.782	4.775	4.767	4.758	4.750	4.746	4.821	4.889	4.769	4.743	4.740	4.740	4.810	4.842	4.733	4.713	4.708	4.704	4.704	4.683	4.664	4.655	4.663	4.666	4.652	4.654	4.779	4.807	4.664	4.602	4.591	4.575	4.555	4.536	4.513	4.488	4.460	4.429	4.398	4.426	4.531	4.484	4.331	4.279	4.256	4.229	4.197	4.163	4.159	4.192	4.095	4.045	4.019	3.994	3.967	3.940	3.913	3.886	3.858	3.832	3.807	3.777	3.745	3.719	3.678	3.643	3.607	3.568	3.533	3.498	3.535	3.764	3.891	3.898	3.825	3.636	3.342	3.239	3.212	3.184	3.159	3.138	3.119	3.097	3.071	3.042	3.010	2.970	2.948	2.924	2.890	2.863	2.843	2.852	2.804	2.763	2.736	2.710	2.684	2.659	2.639	2.674	2.631	2.546	2.512	2.480	2.452	2.424	2.395	2.365	2.335	2.303	2.268	2.231	2.196	2.165	2.158	2.131	2.064	2.024	1.983	1.943	1.907	1.869	1.841	1.839	1.790	1.712	1.666	1.612	1.561	1.516	1.478
1.143	1.136	1.125	1.101	1.066	1.044	1.032	1.037	1.044	1.037	1.033	1.036	1.046	1.057	1.070	1.086	1.109	1.177	1.226	1.238	1.201	1.193	1.202	1.213	1.226	1.239	1.247	1.249	1.253	1.280	1.293	1.305	1.319	1.330	1.335	1.340	1.351	1.364	1.373	1.381	1.391	1.400	1.413	1.423	1.432	1.475	1.546	1.517	1.478	1.513	1.604	1.549	1.536	1.557	1.572	1.583	1.601	1.621	1.640	1.659	1.676	1.693	1.720	1.768	1.787	1.891	1.847	1.768	1.768	1.773	1.778	1.779	1.778	1.774	1.766	1.755	1.740	1.724	1.710	1.700	1.694	1.690	1.687	1.673	1.676	1.682	1.680	1.680	1.685	1.686	1.687	1.688	1.689	1.693	1.695	1.704	1.710	1.713	1.754	1.808	1.725	1.716	1.726	1.741	1.794	1.821	1.777	1.779	1.788	1.798	1.808	1.821	1.833	1.845	1.854	1.859	1.862	1.864	1.867	1.873	1.877	1.879	1.879	1.882	1.886	1.892	1.896	1.893	1.900	1.910	1.918	1.930	1.952	1.963	1.967	1.974	1.980	1.987	1.994	2.002	2.013	2.022	2.029	2.040	2.064	2.082	2.079	2.084	2.089	2.093	2.102	2.111	2.128	2.217	2.206	2.172	2.197	2.260	2.251	2.256	2.272	2.287	2.303	2.319	2.334	2.349	2.362	2.377	2.411	2.423	2.415	2.427	2.444	2.463	2.486	2.554	2.698	2.696	2.575	2.549	2.557	2.567	2.574	2.581	2.588	2.594	2.602	2.614	2.635	2.665	2.673	2.698	2.780	2.756	2.756	2.780	2.801	2.818	2.830	2.844	2.863	2.883	2.907	2.929	3.005	3.072	2.997	3.002	3.020	3.044	3.066	3.099	3.208	3.202	3.155	3.174	3.200	3.258	3.308	3.282	3.361	3.448	3.372	3.318	3.327	3.338	3.346	3.355	3.355	3.350	3.348	3.353	3.365	3.380	3.403	3.427	3.441	3.455	3.470	3.470	3.499	3.501	3.496	3.507	3.518	3.527	3.535	3.557	3.585	3.595	3.605	3.618	3.628	3.636	3.653	3.756	3.788	3.681	3.674	3.679	3.683	3.686	3.690	3.694	3.700	3.708	3.720	3.734	3.749	3.764	3.778	3.791	3.803	3.816	3.828	3.838	3.852	3.868	3.886	3.863	3.831	3.839	3.856	3.874	3.893	3.920	3.987	4.039	4.054	4.062	4.075	4.096	4.117	4.137	4.157	4.175	4.194	4.215	4.241	4.267	4.292	4.317	4.343	4.370	4.400	4.433	4.463	4.491	4.520	4.546	4.570	4.592	4.610	4.625	4.637	4.649	4.669	4.723	4.706	4.698	4.715	4.723	4.738	4.748	4.752	4.752	4.745	4.737	4.730	4.722	4.717	4.714	4.741	4.767	4.717	4.707	4.701	4.698	4.729	4.741	4.684	4.671	4.666	4.664	4.664	4.661	4.648	4.642	4.640	4.629	4.617	4.620	4.728	4.753	4.618	4.562	4.549	4.533	4.514	4.493	4.468	4.443	4.416	4.386	4.355	4.332	4.332	4.306	4.262	4.238	4.213	4.183	4.149	4.114	4.083	4.059	4.024	3.995	3.967	3.939	3.912	3.885	3.859	3.831	3.805	3.779	3.754	3.727	3.696	3.666	3.633	3.598	3.560	3.521	3.486	3.451	3.417	3.482	3.632	3.656	3.566	3.353	3.225	3.195	3.169	3.143	3.122	3.104	3.081	3.057	3.032	3.004	2.972	2.943	2.914	2.882	2.850	2.819	2.790	2.766	2.754	2.720	2.686	2.660	2.637	2.615	2.594	2.597	2.560	2.499	2.463	2.431	2.402	2.372	2.343	2.316	2.287	2.258	2.226	2.192	2.159	2.130	2.102	2.069	2.031	1.992	1.954	1.915	1.876	1.844	1.832	1.763	1.709	1.666	1.620	1.562	1.512	1.465	1.419
1.108	1.101	1.088	1.047	1.022	1.009	0.995	0.988	1.004	1.010	1.005	1.008	1.015	1.024	1.036	1.055	1.081	1.170	1.188	1.142	1.152	1.162	1.170	1.179	1.190	1.202	1.211	1.210	1.214	1.242	1.255	1.267	1.279	1.290	1.297	1.302	1.313	1.327	1.335	1.343	1.355	1.369	1.381	1.392	1.408	1.541	1.677	1.620	1.470	1.473	1.519	1.502	1.508	1.585	1.588	1.551	1.570	1.592	1.613	1.630	1.648	1.667	1.681	1.692	1.700	1.719	1.721	1.722	1.728	1.733	1.738	1.790	1.817	1.751	1.728	1.717	1.703	1.688	1.676	1.664	1.658	1.666	1.667	1.642	1.641	1.643	1.643	1.644	1.646	1.648	1.649	1.647	1.648	1.650	1.654	1.662	1.669	1.671	1.693	1.723	1.677	1.677	1.688	1.708	1.812	1.849	1.749	1.743	1.750	1.758	1.772	1.784	1.789	1.800	1.808	1.814	1.820	1.825	1.831	1.845	1.850	1.848	1.850	1.852	1.854	1.860	1.860	1.859	1.866	1.875	1.883	1.890	1.902	1.922	1.929	1.931	1.934	1.948	1.955	1.964	1.975	1.983	1.989	2.009	2.117	2.150	2.050	2.041	2.046	2.051	2.058	2.067	2.077	2.099	2.116	2.127	2.141	2.161	2.188	2.208	2.222	2.236	2.251	2.268	2.284	2.297	2.311	2.399	2.560	2.579	2.447	2.380	2.397	2.420	2.442	2.548	2.726	2.723	2.565	2.510	2.515	2.520	2.535	2.544	2.551	2.558	2.567	2.581	2.597	2.614	2.635	2.657	2.682	2.704	2.728	2.752	2.770	2.785	2.795	2.808	2.827	2.848	2.871	2.893	2.942	2.986	2.954	2.965	2.986	3.010	3.035	3.061	3.095	3.114	3.129	3.151	3.179	3.205	3.227	3.266	3.461	3.556	3.463	3.307	3.298	3.308	3.319	3.331	3.338	3.344	3.351	3.360	3.372	3.385	3.398	3.408	3.413	3.425	3.440	3.436	3.442	3.454	3.469	3.486	3.499	3.508	3.515	3.536	3.564	3.573	3.582	3.593	3.604	3.611	3.622	3.668	3.691	3.647	3.650	3.656	3.661	3.664	3.670	3.677	3.684	3.692	3.704	3.716	3.729	3.743	3.758	3.772	3.782	3.793	3.803	3.813	3.827	3.845	3.851	3.809	3.801	3.816	3.831	3.849	3.867	3.886	3.931	4.012	4.100	4.083	4.054	4.074	4.095	4.114	4.133	4.154	4.174	4.197	4.227	4.249	4.273	4.297	4.320	4.345	4.371	4.400	4.428	4.457	4.485	4.512	4.537	4.558	4.575	4.587	4.599	4.611	4.634	4.714	4.674	4.656	4.674	4.688	4.698	4.705	4.712	4.713	4.709	4.703	4.696	4.689	4.687	4.684	4.680	4.675	4.692	4.719	4.670	4.657	4.651	4.644	4.634	4.625	4.621	4.620	4.621	4.617	4.612	4.605	4.596	4.587	4.577	4.569	4.573	4.565	4.535	4.519	4.505	4.488	4.471	4.448	4.421	4.395	4.369	4.340	4.309	4.292	4.356	4.338	4.226	4.193	4.167	4.136	4.101	4.066	4.033	4.002	3.975	3.946	3.915	3.884	3.856	3.831	3.806	3.778	3.751	3.727	3.702	3.677	3.651	3.621	3.588	3.552	3.513	3.474	3.438	3.401	3.363	3.330	3.350	3.366	3.272	3.202	3.171	3.147	3.125	3.104	3.081	3.048	3.010	2.979	2.962	2.946	2.925	2.898	2.865	2.832	2.800	2.769	2.741	2.755	2.828	2.728	2.640	2.619	2.590	2.567	2.545	2.517	2.484	2.449	2.414	2.381	2.350	2.318	2.290	2.265	2.237	2.210	2.181	2.152	2.124	2.096	2.068	2.037	2.001	1.962	1.925	1.886	1.844	1.834	1.878	1.758	1.665	1.621	1.573	1.513	1.459	1.410	1.363
1.073	1.067	1.050	1.009	0.993	0.980	0.968	0.957	0.967	0.985	0.981	0.984	0.992	0.999	1.008	1.024	1.046	1.074	1.096	1.106	1.119	1.131	1.138	1.145	1.154	1.164	1.173	1.180	1.191	1.205	1.216	1.227	1.237	1.248	1.259	1.271	1.282	1.291	1.297	1.306	1.320	1.334	1.346	1.357	1.375	1.496	1.627	1.573	1.439	1.437	1.450	1.457	1.467	1.522	1.533	1.519	1.539	1.560	1.581	1.599	1.617	1.634	1.648	1.659	1.666	1.673	1.680	1.688	1.692	1.695	1.718	1.881	1.928	1.777	1.689	1.680	1.667	1.654	1.643	1.633	1.647	1.765	1.782	1.658	1.611	1.608	1.608	1.609	1.609	1.611	1.612	1.612	1.611	1.611	1.616	1.621	1.628	1.628	1.625	1.624	1.630	1.640	1.652	1.666	1.694	1.713	1.700	1.706	1.713	1.723	1.799	1.831	1.759	1.760	1.767	1.775	1.784	1.792	1.806	1.897	1.910	1.864	1.886	1.832	1.825	1.831	1.828	1.827	1.832	1.841	1.848	1.849	1.858	1.880	1.887	1.891	1.894	1.911	1.919	1.922	1.933	1.943	1.951	1.972	2.073	2.100	2.006	1.999	2.004	2.008	2.015	2.025	2.038	2.056	2.074	2.075	2.088	2.107	2.129	2.155	2.174	2.190	2.212	2.273	2.265	2.249	2.278	2.483	2.648	2.669	2.548	2.391	2.407	2.383	2.400	2.446	2.556	2.559	2.475	2.470	2.474	2.478	2.498	2.511	2.522	2.530	2.538	2.550	2.565	2.583	2.604	2.627	2.649	2.673	2.694	2.721	2.736	2.750	2.761	2.773	2.789	2.811	2.832	2.855	2.874	2.890	2.908	2.929	2.951	2.977	3.002	3.028	3.054	3.080	3.106	3.131	3.158	3.186	3.208	3.237	3.377	3.471	3.385	3.278	3.275	3.282	3.329	3.383	3.335	3.318	3.328	3.338	3.350	3.362	3.378	3.385	3.388	3.400	3.420	3.416	3.419	3.432	3.446	3.461	3.474	3.483	3.494	3.520	3.544	3.550	3.559	3.568	3.580	3.591	3.601	3.607	3.612	3.618	3.626	3.634	3.640	3.645	3.652	3.660	3.667	3.673	3.687	3.700	3.711	3.723	3.737	3.750	3.761	3.771	3.781	3.792	3.804	3.821	3.820	3.775	3.779	3.796	3.811	3.828	3.844	3.862	3.898	3.980	4.054	4.046	4.035	4.054	4.075	4.095	4.114	4.136	4.161	4.243	4.302	4.247	4.255	4.278	4.299	4.322	4.347	4.372	4.397	4.427	4.455	4.480	4.502	4.522	4.537	4.548	4.561	4.572	4.591	4.606	4.601	4.614	4.628	4.641	4.655	4.663	4.671	4.676	4.676	4.672	4.663	4.658	4.657	4.654	4.649	4.643	4.690	4.743	4.641	4.619	4.610	4.603	4.589	4.580	4.575	4.576	4.576	4.574	4.569	4.561	4.552	4.543	4.535	4.528	4.519	4.506	4.492	4.476	4.460	4.440	4.417	4.402	4.377	4.348	4.322	4.295	4.266	4.254	4.349	4.334	4.189	4.147	4.119	4.089	4.054	4.018	3.985	3.954	3.925	3.895	3.863	3.832	3.801	3.775	3.749	3.722	3.697	3.673	3.645	3.624	3.609	3.634	3.585	3.508	3.468	3.429	3.390	3.352	3.313	3.275	3.321	3.383	3.238	3.147	3.122	3.101	3.080	3.052	3.006	2.956	2.914	2.884	2.865	2.850	2.846	2.852	2.867	2.791	2.746	2.715	2.687	2.703	2.783	2.683	2.626	2.636	2.546	2.516	2.494	2.466	2.433	2.400	2.365	2.331	2.298	2.267	2.242	2.217	2.185	2.158	2.132	2.108	2.085	2.061	2.041	2.004	1.964	1.926	1.890	1.850	1.806	1.772	1.760	1.680	1.618	1.571	1.523	1.463	1.401	1.354	1.310
1.040	1.035	1.021	0.983	0.967	0.954	0.942	0.933	0.947	0.962	0.958	0.962	0.969	0.966	0.979	1.002	1.022	1.042	1.060	1.076	1.088	1.096	1.102	1.108	1.115	1.125	1.170	1.198	1.160	1.164	1.176	1.186	1.197	1.210	1.223	1.234	1.247	1.256	1.262	1.270	1.285	1.300	1.309	1.321	1.335	1.366	1.429	1.412	1.393	1.407	1.420	1.430	1.439	1.457	1.471	1.486	1.504	1.522	1.542	1.563	1.582	1.597	1.611	1.626	1.635	1.642	1.646	1.651	1.657	1.660	1.677	1.811	1.849	1.717	1.649	1.643	1.632	1.645	1.655	1.607	1.662	1.831	1.842	1.675	1.581	1.577	1.575	1.574	1.576	1.576	1.579	1.579	1.574	1.571	1.574	1.587	1.604	1.593	1.583	1.587	1.593	1.603	1.615	1.628	1.639	1.650	1.661	1.670	1.679	1.691	1.772	1.810	1.728	1.727	1.736	1.743	1.751	1.760	1.779	1.890	1.909	1.868	1.907	1.810	1.798	1.804	1.802	1.795	1.800	1.806	1.809	1.810	1.820	1.836	1.863	1.876	1.864	1.951	1.976	1.894	1.891	1.904	1.914	1.925	1.945	1.956	1.953	1.958	1.963	1.965	1.972	1.983	1.999	2.051	2.135	2.089	2.052	2.066	2.080	2.102	2.131	2.148	2.178	2.289	2.252	2.203	2.231	2.432	2.599	2.620	2.498	2.373	2.407	2.346	2.359	2.378	2.399	2.411	2.417	2.429	2.439	2.449	2.464	2.478	2.491	2.502	2.511	2.521	2.535	2.553	2.574	2.595	2.618	2.643	2.668	2.688	2.703	2.716	2.727	2.740	2.756	2.773	2.795	2.817	2.836	2.853	2.872	2.893	2.915	2.945	2.999	3.003	3.019	3.049	3.079	3.107	3.134	3.163	3.187	3.205	3.230	3.256	3.251	3.248	3.254	3.259	3.338	3.434	3.334	3.288	3.299	3.310	3.322	3.344	3.432	3.404	3.369	3.383	3.400	3.402	3.397	3.408	3.421	3.433	3.443	3.457	3.494	3.523	3.521	3.525	3.535	3.546	3.559	3.572	3.581	3.588	3.593	3.598	3.605	3.620	3.621	3.624	3.633	3.643	3.651	3.658	3.673	3.684	3.691	3.701	3.714	3.727	3.738	3.749	3.760	3.771	3.786	3.804	3.803	3.759	3.760	3.779	3.796	3.810	3.827	3.844	3.880	3.954	3.983	3.998	4.014	4.034	4.056	4.077	4.097	4.118	4.147	4.287	4.361	4.256	4.238	4.261	4.283	4.303	4.324	4.346	4.371	4.399	4.427	4.449	4.469	4.486	4.497	4.507	4.518	4.556	4.675	4.693	4.598	4.567	4.581	4.595	4.610	4.627	4.646	4.642	4.642	4.640	4.632	4.627	4.626	4.625	4.621	4.612	4.612	4.614	4.590	4.599	4.675	4.685	4.589	4.537	4.532	4.532	4.532	4.530	4.525	4.518	4.508	4.499	4.492	4.484	4.474	4.465	4.452	4.435	4.419	4.400	4.378	4.361	4.336	4.306	4.279	4.252	4.223	4.198	4.197	4.176	4.129	4.100	4.070	4.036	4.005	3.970	3.937	3.905	3.875	3.845	3.813	3.779	3.746	3.716	3.689	3.663	3.639	3.616	3.594	3.572	3.580	3.693	3.632	3.473	3.422	3.382	3.340	3.300	3.261	3.221	3.219	3.228	3.145	3.100	3.078	3.057	3.029	2.974	2.923	2.889	2.857	2.830	2.805	2.777	2.755	2.785	2.855	2.750	2.690	2.660	2.631	2.611	2.608	2.576	2.563	2.555	2.490	2.462	2.439	2.412	2.382	2.349	2.315	2.280	2.246	2.232	2.291	2.314	2.234	2.122	2.084	2.061	2.043	2.079	2.146	2.065	1.933	1.885	1.848	1.807	1.762	1.717	1.671	1.621	1.569	1.520	1.472	1.419	1.362	1.313	1.269
1.011	1.006	0.998	0.969	0.943	0.934	0.968	0.947	0.934	0.936	0.935	0.942	0.949	0.952	0.961	0.985	1.010	1.016	1.031	1.046	1.055	1.059	1.065	1.071	1.077	1.092	1.197	1.247	1.127	1.118	1.130	1.142	1.157	1.171	1.185	1.197	1.212	1.222	1.228	1.237	1.250	1.264	1.273	1.285	1.299	1.315	1.331	1.344	1.358	1.372	1.386	1.401	1.414	1.426	1.438	1.452	1.467	1.484	1.506	1.527	1.545	1.560	1.575	1.591	1.601	1.609	1.614	1.617	1.622	1.626	1.626	1.639	1.641	1.621	1.612	1.607	1.598	1.629	1.647	1.578	1.584	1.694	1.713	1.594	1.553	1.549	1.546	1.547	1.547	1.546	1.547	1.544	1.537	1.533	1.543	1.653	1.740	1.658	1.553	1.549	1.555	1.565	1.580	1.594	1.602	1.616	1.628	1.638	1.647	1.656	1.672	1.685	1.687	1.698	1.713	1.719	1.724	1.732	1.738	1.757	1.766	1.768	1.778	1.769	1.771	1.776	1.780	1.771	1.768	1.768	1.770	1.775	1.784	1.798	1.908	1.932	1.838	1.949	1.985	1.867	1.851	1.864	1.876	1.884	1.894	1.902	1.911	1.918	1.924	1.928	1.933	1.944	1.961	2.047	2.177	2.114	2.020	2.026	2.040	2.060	2.091	2.109	2.127	2.154	2.156	2.157	2.171	2.253	2.405	2.429	2.307	2.257	2.281	2.296	2.316	2.334	2.350	2.362	2.375	2.388	2.399	2.412	2.429	2.473	2.509	2.475	2.481	2.493	2.507	2.525	2.545	2.563	2.586	2.611	2.635	2.654	2.667	2.681	2.693	2.707	2.721	2.737	2.756	2.776	2.798	2.833	2.854	2.857	2.879	2.916	3.033	3.006	2.984	3.017	3.049	3.078	3.107	3.136	3.160	3.179	3.192	3.206	3.217	3.224	3.229	3.235	3.254	3.288	3.263	3.261	3.270	3.281	3.292	3.320	3.437	3.399	3.347	3.358	3.372	3.383	3.379	3.380	3.392	3.405	3.421	3.523	3.684	3.690	3.558	3.502	3.511	3.524	3.539	3.552	3.561	3.568	3.574	3.579	3.595	3.679	3.642	3.604	3.613	3.623	3.633	3.645	3.659	3.667	3.672	3.679	3.691	3.704	3.715	3.729	3.742	3.756	3.771	3.788	3.798	3.764	3.745	3.760	3.769	3.792	3.812	3.829	3.883	3.947	3.966	3.979	3.994	4.013	4.033	4.054	4.076	4.097	4.114	4.173	4.225	4.203	4.220	4.244	4.265	4.284	4.303	4.326	4.363	4.379	4.393	4.414	4.433	4.447	4.455	4.465	4.475	4.592	4.789	4.808	4.653	4.529	4.537	4.551	4.567	4.637	4.721	4.637	4.605	4.606	4.603	4.598	4.595	4.596	4.592	4.581	4.570	4.558	4.549	4.630	4.803	4.816	4.653	4.505	4.488	4.486	4.485	4.484	4.482	4.477	4.465	4.455	4.447	4.436	4.427	4.418	4.406	4.391	4.377	4.362	4.341	4.319	4.294	4.266	4.238	4.210	4.182	4.155	4.130	4.105	4.079	4.051	4.020	3.987	3.953	3.920	3.887	3.856	3.826	3.795	3.763	3.728	3.695	3.663	3.634	3.606	3.581	3.559	3.539	3.518	3.510	3.559	3.510	3.418	3.375	3.334	3.292	3.251	3.210	3.169	3.132	3.100	3.074	3.050	3.031	3.010	2.962	2.898	2.864	2.835	2.804	2.776	2.749	2.720	2.692	2.676	2.694	2.672	2.638	2.606	2.580	2.559	2.541	2.519	2.492	2.462	2.433	2.408	2.383	2.357	2.327	2.295	2.261	2.228	2.197	2.258	2.442	2.484	2.389	2.153	2.038	2.016	2.010	2.143	2.242	2.152	1.922	1.838	1.801	1.762	1.770	1.780	1.678	1.570	1.517	1.469	1.418	1.369	1.317	1.266	1.224
0.981	0.975	0.968	0.957	0.936	0.929	1.008	0.973	0.914	0.909	0.912	0.920	0.926	0.934	0.942	1.016	1.093	1.012	0.999	1.012	1.018	1.023	1.029	1.037	1.045	1.054	1.096	1.122	1.077	1.076	1.085	1.097	1.114	1.132	1.145	1.158	1.174	1.187	1.194	1.203	1.212	1.225	1.236	1.247	1.262	1.279	1.296	1.311	1.323	1.336	1.351	1.367	1.381	1.394	1.406	1.419	1.431	1.448	1.469	1.489	1.506	1.522	1.535	1.550	1.562	1.572	1.580	1.587	1.590	1.592	1.591	1.589	1.585	1.581	1.578	1.574	1.567	1.563	1.555	1.543	1.537	1.541	1.542	1.528	1.526	1.523	1.521	1.520	1.516	1.512	1.512	1.509	1.502	1.497	1.518	1.699	1.789	1.701	1.525	1.507	1.515	1.544	1.643	1.657	1.587	1.587	1.600	1.610	1.620	1.629	1.638	1.646	1.657	1.679	1.763	1.733	1.701	1.706	1.709	1.714	1.720	1.727	1.733	1.739	1.742	1.748	1.753	1.753	1.745	1.740	1.741	1.745	1.745	1.749	1.806	1.825	1.777	1.806	1.822	1.800	1.810	1.823	1.835	1.843	1.852	1.861	1.870	1.878	1.885	1.891	1.896	1.907	1.926	1.959	2.017	1.995	1.977	1.989	2.004	2.027	2.057	2.073	2.086	2.098	2.105	2.112	2.125	2.143	2.175	2.192	2.191	2.207	2.227	2.250	2.271	2.289	2.303	2.316	2.333	2.347	2.359	2.374	2.392	2.467	2.518	2.440	2.445	2.461	2.479	2.498	2.515	2.531	2.552	2.576	2.598	2.615	2.629	2.643	2.657	2.671	2.685	2.696	2.710	2.735	2.771	2.905	2.928	2.835	2.841	2.866	2.916	2.927	2.949	2.983	3.016	3.047	3.077	3.104	3.129	3.149	3.167	3.179	3.189	3.196	3.195	3.206	3.212	3.219	3.227	3.235	3.243	3.252	3.263	3.277	3.305	3.315	3.321	3.331	3.342	3.353	3.363	3.370	3.377	3.387	3.429	3.670	3.818	3.816	3.659	3.490	3.486	3.500	3.515	3.528	3.538	3.546	3.554	3.560	3.573	3.633	3.610	3.583	3.593	3.603	3.614	3.628	3.640	3.650	3.655	3.660	3.668	3.680	3.695	3.711	3.727	3.744	3.759	3.773	3.790	3.788	3.756	3.750	3.756	3.779	3.803	3.841	3.904	3.936	3.947	3.959	3.975	3.993	4.010	4.031	4.052	4.066	4.083	4.106	4.139	4.173	4.200	4.220	4.239	4.261	4.279	4.314	4.444	4.422	4.360	4.375	4.392	4.403	4.410	4.420	4.431	4.538	4.728	4.748	4.595	4.485	4.496	4.511	4.525	4.599	4.684	4.600	4.569	4.572	4.572	4.569	4.568	4.566	4.561	4.549	4.536	4.523	4.513	4.587	4.755	4.766	4.609	4.516	4.475	4.438	4.438	4.447	4.445	4.433	4.423	4.412	4.424	4.474	4.425	4.368	4.354	4.342	4.330	4.315	4.297	4.275	4.249	4.224	4.197	4.167	4.139	4.110	4.084	4.058	4.028	3.997	3.974	4.007	3.940	3.868	3.835	3.805	3.775	3.753	3.722	3.681	3.648	3.617	3.587	3.556	3.526	3.501	3.480	3.460	3.439	3.421	3.395	3.362	3.323	3.283	3.243	3.204	3.161	3.119	3.082	3.048	3.020	2.999	2.979	2.952	2.887	2.833	2.806	2.778	2.747	2.718	2.690	2.663	2.635	2.607	2.609	2.616	2.586	2.554	2.529	2.507	2.487	2.466	2.442	2.411	2.383	2.357	2.331	2.304	2.272	2.239	2.207	2.178	2.151	2.251	2.449	2.479	2.396	2.146	1.994	1.972	1.960	2.054	2.152	2.059	1.856	1.786	1.748	1.726	1.850	1.901	1.764	1.538	1.469	1.421	1.370	1.319	1.262	1.208	1.170
0.950	0.942	0.933	0.927	0.923	0.915	0.916	0.901	0.884	0.880	0.884	0.890	0.897	0.905	0.917	0.974	1.046	0.976	0.967	0.976	0.981	0.987	0.993	1.001	1.011	1.020	1.024	1.028	1.031	1.037	1.047	1.059	1.075	1.093	1.107	1.121	1.135	1.147	1.156	1.169	1.179	1.190	1.199	1.209	1.224	1.242	1.259	1.274	1.288	1.303	1.320	1.336	1.350	1.363	1.374	1.386	1.399	1.415	1.435	1.452	1.467	1.481	1.496	1.510	1.524	1.536	1.544	1.551	1.553	1.555	1.556	1.554	1.553	1.550	1.546	1.543	1.539	1.531	1.524	1.517	1.511	1.508	1.506	1.515	1.546	1.510	1.495	1.491	1.483	1.478	1.477	1.473	1.466	1.460	1.468	1.576	1.659	1.574	1.469	1.465	1.475	1.555	1.732	1.748	1.603	1.557	1.571	1.581	1.590	1.601	1.611	1.619	1.629	1.653	1.735	1.706	1.674	1.679	1.683	1.687	1.692	1.697	1.703	1.709	1.713	1.717	1.721	1.720	1.714	1.709	1.705	1.704	1.702	1.703	1.710	1.718	1.729	1.737	1.745	1.757	1.769	1.781	1.792	1.801	1.813	1.824	1.834	1.842	1.851	1.858	1.862	1.871	1.890	1.910	1.920	1.925	1.941	1.955	1.974	2.002	2.024	2.038	2.050	2.061	2.066	2.072	2.085	2.102	2.115	2.131	2.150	2.168	2.185	2.205	2.226	2.243	2.258	2.274	2.291	2.306	2.320	2.336	2.354	2.377	2.393	2.395	2.410	2.428	2.447	2.465	2.482	2.498	2.516	2.537	2.556	2.573	2.588	2.604	2.619	2.632	2.644	2.652	2.666	2.694	2.729	2.829	2.853	2.795	2.806	2.829	2.854	2.882	2.914	2.981	3.069	3.055	3.043	3.070	3.096	3.128	3.211	3.186	3.158	3.166	3.168	3.177	3.183	3.191	3.201	3.209	3.217	3.224	3.233	3.246	3.261	3.277	3.290	3.300	3.308	3.321	3.336	3.348	3.361	3.371	3.411	3.652	3.793	3.791	3.638	3.465	3.461	3.475	3.489	3.501	3.512	3.522	3.530	3.537	3.542	3.549	3.555	3.561	3.571	3.582	3.594	3.607	3.619	3.628	3.635	3.640	3.654	3.675	3.680	3.694	3.712	3.730	3.744	3.756	3.775	3.794	3.799	3.788	3.788	3.806	3.838	3.881	3.907	3.917	3.929	3.943	3.958	3.975	3.993	4.012	4.026	4.038	4.062	4.086	4.108	4.144	4.174	4.196	4.215	4.232	4.250	4.277	4.361	4.349	4.321	4.333	4.372	4.421	4.376	4.373	4.385	4.412	4.498	4.515	4.447	4.439	4.455	4.469	4.482	4.501	4.523	4.523	4.528	4.533	4.535	4.533	4.533	4.531	4.524	4.515	4.502	4.488	4.476	4.478	4.541	4.541	4.458	4.454	4.426	4.391	4.395	4.457	4.447	4.391	4.382	4.374	4.477	4.592	4.508	4.336	4.304	4.293	4.281	4.265	4.248	4.227	4.202	4.178	4.153	4.124	4.095	4.064	4.041	4.067	4.032	3.948	3.925	3.996	3.911	3.812	3.782	3.753	3.726	3.767	3.746	3.640	3.603	3.573	3.542	3.509	3.474	3.445	3.421	3.399	3.380	3.361	3.336	3.303	3.266	3.228	3.192	3.153	3.112	3.069	3.030	2.995	2.967	2.944	2.921	2.884	2.814	2.770	2.744	2.717	2.689	2.660	2.633	2.606	2.577	2.547	2.543	2.560	2.534	2.502	2.477	2.455	2.433	2.413	2.389	2.359	2.331	2.306	2.281	2.252	2.219	2.186	2.157	2.132	2.106	2.145	2.313	2.362	2.259	2.040	1.950	1.926	1.904	1.896	1.916	1.854	1.810	1.758	1.695	1.670	1.780	1.834	1.701	1.491	1.426	1.376	1.325	1.274	1.220	1.165	1.129
0.916	0.907	0.898	0.894	0.889	0.883	0.872	0.863	0.854	0.849	0.851	0.856	0.864	0.875	0.888	0.902	0.921	0.925	0.935	0.942	0.945	0.950	0.956	0.965	0.975	0.984	0.987	0.989	0.993	1.001	1.013	1.026	1.040	1.056	1.070	1.082	1.093	1.105	1.116	1.130	1.142	1.153	1.162	1.173	1.189	1.206	1.221	1.237	1.255	1.271	1.288	1.304	1.317	1.328	1.338	1.352	1.367	1.384	1.400	1.415	1.429	1.443	1.458	1.473	1.487	1.498	1.506	1.509	1.512	1.515	1.518	1.520	1.521	1.521	1.517	1.516	1.513	1.507	1.502	1.496	1.490	1.487	1.485	1.534	1.630	1.536	1.468	1.462	1.452	1.444	1.444	1.491	1.542	1.489	1.426	1.428	1.438	1.426	1.419	1.425	1.435	1.483	1.622	1.641	1.538	1.524	1.539	1.548	1.558	1.568	1.580	1.608	1.676	1.652	1.633	1.637	1.643	1.650	1.656	1.660	1.664	1.667	1.674	1.681	1.684	1.686	1.687	1.685	1.676	1.670	1.667	1.665	1.663	1.664	1.671	1.677	1.686	1.695	1.704	1.714	1.726	1.737	1.749	1.762	1.776	1.789	1.800	1.810	1.822	1.829	1.833	1.840	1.858	1.877	1.896	1.908	1.920	1.937	1.956	1.975	1.992	2.006	2.018	2.026	2.030	2.037	2.049	2.064	2.076	2.091	2.111	2.130	2.145	2.172	2.202	2.202	2.218	2.234	2.250	2.264	2.277	2.292	2.310	2.329	2.401	2.462	2.421	2.395	2.410	2.428	2.443	2.460	2.479	2.498	2.515	2.531	2.545	2.560	2.576	2.587	2.599	2.614	2.631	2.655	2.682	2.712	2.735	2.752	2.773	2.797	2.822	2.850	2.882	3.021	3.176	3.117	3.016	3.036	3.065	3.102	3.213	3.178	3.179	3.163	3.141	3.148	3.152	3.160	3.171	3.181	3.188	3.197	3.205	3.216	3.230	3.243	3.255	3.264	3.274	3.328	3.388	3.330	3.327	3.337	3.358	3.484	3.626	3.620	3.481	3.422	3.435	3.451	3.463	3.476	3.488	3.498	3.505	3.511	3.519	3.525	3.531	3.537	3.547	3.558	3.570	3.584	3.596	3.606	3.615	3.624	3.695	3.785	3.706	3.675	3.692	3.711	3.725	3.737	3.757	3.779	3.801	3.819	3.836	3.854	3.872	3.886	3.896	3.905	3.918	3.933	3.948	3.965	3.981	3.995	4.004	4.025	4.120	4.151	4.094	4.117	4.147	4.167	4.185	4.200	4.217	4.237	4.266	4.271	4.279	4.289	4.343	4.422	4.344	4.326	4.339	4.355	4.387	4.388	4.384	4.398	4.413	4.438	4.479	4.456	4.462	4.474	4.483	4.489	4.491	4.491	4.491	4.490	4.485	4.477	4.465	4.452	4.437	4.422	4.407	4.392	4.379	4.368	4.356	4.348	4.349	4.375	4.371	4.348	4.339	4.328	4.423	4.532	4.448	4.287	4.257	4.244	4.231	4.216	4.199	4.176	4.151	4.128	4.104	4.078	4.049	4.016	4.002	4.109	4.074	3.906	3.856	3.834	3.795	3.756	3.726	3.698	3.672	3.687	3.671	3.593	3.558	3.527	3.495	3.458	3.413	3.384	3.364	3.342	3.325	3.304	3.278	3.247	3.210	3.172	3.137	3.097	3.057	3.015	2.975	2.939	2.910	2.883	2.858	2.821	2.749	2.706	2.680	2.655	2.629	2.603	2.579	2.553	2.522	2.494	2.492	2.510	2.485	2.451	2.423	2.400	2.379	2.358	2.334	2.306	2.279	2.255	2.231	2.201	2.169	2.138	2.109	2.084	2.060	2.037	2.067	2.092	2.015	1.938	1.961	1.995	1.933	1.838	1.796	1.771	1.818	1.741	1.642	1.604	1.600	1.609	1.520	1.434	1.384	1.333	1.282	1.230	1.181	1.132	1.128
0.878	0.871	0.863	0.859	0.853	0.860	0.915	0.880	0.819	0.809	0.812	0.820	0.831	0.843	0.857	0.869	0.881	0.908	0.983	0.964	0.914	0.917	0.923	0.930	0.940	0.947	0.950	0.953	0.958	0.968	0.979	0.991	1.006	1.020	1.032	1.041	1.051	1.063	1.075	1.090	1.104	1.116	1.125	1.137	1.153	1.171	1.187	1.202	1.219	1.237	1.254	1.268	1.282	1.293	1.303	1.314	1.330	1.346	1.364	1.379	1.392	1.406	1.421	1.435	1.448	1.459	1.466	1.469	1.473	1.478	1.482	1.488	1.490	1.490	1.489	1.489	1.487	1.483	1.480	1.474	1.468	1.465	1.463	1.475	1.521	1.476	1.442	1.436	1.423	1.414	1.457	1.644	1.729	1.656	1.454	1.381	1.379	1.379	1.381	1.387	1.396	1.415	1.445	1.464	1.473	1.492	1.505	1.512	1.522	1.533	1.548	1.631	1.766	1.687	1.602	1.606	1.614	1.622	1.627	1.632	1.634	1.639	1.645	1.652	1.653	1.651	1.651	1.647	1.639	1.633	1.629	1.628	1.626	1.622	1.614	1.612	1.619	1.639	1.661	1.671	1.685	1.713	1.727	1.726	1.739	1.752	1.765	1.779	1.791	1.799	1.805	1.814	1.831	1.850	1.867	1.885	1.900	1.914	1.929	1.944	1.960	1.975	1.987	1.995	1.999	2.007	2.016	2.027	2.038	2.051	2.069	2.090	2.107	2.176	2.241	2.174	2.179	2.195	2.209	2.221	2.231	2.244	2.262	2.341	2.547	2.627	2.539	2.375	2.390	2.430	2.408	2.420	2.438	2.457	2.474	2.489	2.502	2.513	2.527	2.540	2.552	2.568	2.587	2.610	2.629	2.657	2.690	2.716	2.740	2.766	2.792	2.819	2.849	2.953	3.086	3.041	2.982	3.006	3.030	3.052	3.077	3.099	3.206	3.166	3.112	3.117	3.121	3.130	3.142	3.155	3.163	3.171	3.178	3.185	3.196	3.207	3.219	3.229	3.240	3.323	3.406	3.313	3.294	3.307	3.321	3.344	3.378	3.388	3.380	3.391	3.406	3.421	3.435	3.460	3.488	3.484	3.482	3.489	3.497	3.502	3.507	3.514	3.525	3.535	3.545	3.559	3.572	3.582	3.592	3.603	3.660	3.749	3.680	3.657	3.673	3.689	3.704	3.721	3.741	3.761	3.781	3.803	3.827	3.846	3.860	3.874	3.887	3.899	3.912	3.925	3.941	3.955	3.966	3.980	3.989	4.015	4.167	4.197	4.082	4.097	4.120	4.137	4.152	4.165	4.181	4.216	4.317	4.267	4.235	4.243	4.256	4.275	4.275	4.285	4.295	4.379	4.516	4.477	4.356	4.355	4.369	4.422	4.494	4.419	4.415	4.427	4.439	4.457	4.452	4.446	4.448	4.448	4.445	4.436	4.424	4.409	4.395	4.382	4.367	4.352	4.338	4.326	4.315	4.306	4.303	4.303	4.303	4.302	4.295	4.278	4.277	4.315	4.269	4.222	4.207	4.192	4.180	4.166	4.149	4.126	4.102	4.079	4.056	4.030	4.000	3.968	3.943	3.971	3.936	3.869	3.837	3.765	3.731	3.736	3.730	3.653	3.622	3.596	3.569	3.539	3.509	3.477	3.444	3.407	3.363	3.362	3.362	3.293	3.268	3.244	3.213	3.187	3.153	3.117	3.081	3.041	2.998	2.955	2.915	2.880	2.849	2.821	2.794	2.764	2.696	2.643	2.615	2.592	2.568	2.544	2.523	2.497	2.468	2.445	2.456	2.467	2.437	2.401	2.371	2.347	2.325	2.304	2.281	2.255	2.231	2.206	2.180	2.153	2.172	2.198	2.120	2.040	2.013	1.988	1.965	1.941	1.916	1.930	2.093	2.166	2.089	1.864	1.742	1.711	1.689	1.642	1.592	1.554	1.515	1.476	1.433	1.389	1.343	1.293	1.241	1.189	1.140	1.091	1.104
0.827	0.833	0.827	0.821	0.815	0.855	0.984	0.934	0.789	0.767	0.771	0.782	0.795	0.809	0.824	0.836	0.847	0.919	1.070	1.034	0.896	0.897	0.915	0.907	0.906	0.912	0.916	0.920	0.925	0.935	0.946	0.959	0.972	0.985	0.993	1.003	1.012	1.023	1.035	1.050	1.066	1.078	1.089	1.101	1.117	1.134	1.152	1.169	1.184	1.201	1.218	1.232	1.245	1.257	1.268	1.278	1.289	1.305	1.323	1.340	1.354	1.367	1.382	1.394	1.406	1.416	1.426	1.433	1.438	1.445	1.450	1.456	1.458	1.459	1.461	1.462	1.459	1.456	1.454	1.450	1.443	1.441	1.438	1.432	1.425	1.420	1.415	1.407	1.394	1.385	1.475	1.689	1.755	1.699	1.474	1.343	1.343	1.344	1.348	1.356	1.371	1.390	1.398	1.416	1.436	1.454	1.467	1.479	1.489	1.502	1.517	1.560	1.634	1.604	1.572	1.580	1.587	1.593	1.598	1.604	1.607	1.612	1.618	1.631	1.628	1.614	1.611	1.607	1.601	1.598	1.595	1.593	1.592	1.574	1.561	1.567	1.579	1.580	1.609	1.629	1.662	1.811	1.846	1.732	1.702	1.717	1.731	1.745	1.757	1.766	1.775	1.788	1.804	1.822	1.849	1.870	1.872	1.884	1.899	1.915	1.928	1.941	1.953	1.980	1.986	1.978	1.984	1.993	2.002	2.010	2.027	2.051	2.071	2.103	2.138	2.128	2.141	2.155	2.165	2.174	2.189	2.204	2.212	2.336	2.563	2.629	2.549	2.344	2.360	2.417	2.368	2.377	2.396	2.413	2.430	2.444	2.454	2.463	2.476	2.489	2.503	2.520	2.542	2.556	2.561	2.591	2.643	2.675	2.703	2.733	2.760	2.787	2.817	2.856	2.906	2.929	2.948	2.973	2.995	3.012	3.024	3.041	3.076	3.079	3.082	3.137	3.184	3.132	3.113	3.126	3.137	3.144	3.149	3.154	3.161	3.169	3.179	3.193	3.210	3.235	3.255	3.253	3.264	3.277	3.293	3.308	3.323	3.336	3.346	3.360	3.375	3.390	3.418	3.553	3.648	3.564	3.468	3.469	3.475	3.480	3.486	3.494	3.503	3.525	3.553	3.538	3.545	3.554	3.568	3.578	3.590	3.614	3.622	3.639	3.656	3.672	3.689	3.707	3.727	3.746	3.764	3.785	3.809	3.831	3.849	3.866	3.881	3.894	3.906	3.920	3.934	3.944	3.953	3.968	3.984	3.995	4.050	4.072	4.055	4.077	4.091	4.107	4.118	4.130	4.142	4.161	4.227	4.203	4.189	4.198	4.208	4.219	4.232	4.244	4.254	4.353	4.510	4.466	4.316	4.310	4.323	4.341	4.362	4.360	4.368	4.381	4.404	4.505	4.461	4.401	4.404	4.404	4.402	4.394	4.380	4.364	4.351	4.337	4.323	4.308	4.293	4.282	4.272	4.264	4.260	4.259	4.259	4.258	4.250	4.234	4.215	4.199	4.184	4.167	4.152	4.137	4.124	4.111	4.096	4.076	4.053	4.035	4.060	4.028	3.953	3.920	3.889	3.856	3.821	3.835	3.823	3.720	3.681	3.709	3.719	3.609	3.573	3.548	3.520	3.490	3.456	3.423	3.389	3.354	3.320	3.321	3.319	3.237	3.208	3.179	3.146	3.123	3.093	3.059	3.023	2.974	2.919	2.875	2.847	2.820	2.787	2.757	2.732	2.706	2.654	2.586	2.550	2.527	2.505	2.485	2.465	2.440	2.413	2.402	2.424	2.421	2.389	2.354	2.323	2.297	2.273	2.252	2.229	2.205	2.215	2.223	2.141	2.121	2.264	2.334	2.225	2.014	1.965	1.940	1.918	1.893	1.869	1.927	2.120	2.174	2.107	1.859	1.692	1.662	1.626	1.587	1.547	1.509	1.469	1.433	1.390	1.345	1.301	1.252	1.201	1.149	1.099	1.053	1.016
0.771	0.786	0.792	0.784	0.777	0.783	0.839	0.808	0.745	0.736	0.739	0.747	0.760	0.775	0.791	0.803	0.813	0.846	0.958	0.937	0.861	0.971	1.066	0.985	0.880	0.878	0.883	0.888	0.892	0.902	0.912	0.924	0.935	0.946	0.954	0.962	0.971	0.983	0.996	1.011	1.027	1.041	1.052	1.066	1.082	1.097	1.114	1.131	1.147	1.164	1.183	1.198	1.211	1.224	1.237	1.255	1.254	1.266	1.283	1.298	1.312	1.327	1.343	1.356	1.367	1.377	1.387	1.396	1.404	1.412	1.420	1.426	1.428	1.431	1.433	1.435	1.431	1.427	1.427	1.426	1.420	1.435	1.491	1.469	1.410	1.393	1.385	1.377	1.365	1.354	1.393	1.575	1.657	1.584	1.380	1.307	1.307	1.312	1.318	1.327	1.384	1.437	1.376	1.383	1.399	1.413	1.428	1.443	1.456	1.468	1.481	1.497	1.513	1.529	1.544	1.552	1.558	1.563	1.568	1.575	1.583	1.588	1.594	1.649	1.653	1.588	1.578	1.572	1.569	1.566	1.564	1.561	1.558	1.535	1.528	1.583	1.664	1.583	1.563	1.588	1.632	1.809	1.850	1.716	1.666	1.683	1.699	1.713	1.725	1.734	1.745	1.759	1.777	1.797	1.881	1.931	1.852	1.854	1.868	1.882	1.895	1.915	1.943	2.080	2.086	1.964	1.951	1.958	1.967	1.978	1.993	2.013	2.033	2.051	2.069	2.086	2.099	2.110	2.118	2.132	2.227	2.252	2.173	2.228	2.408	2.484	2.397	2.281	2.281	2.302	2.314	2.334	2.353	2.368	2.382	2.394	2.403	2.410	2.425	2.440	2.455	2.475	2.501	2.523	2.522	2.551	2.604	2.636	2.666	2.701	2.740	2.757	2.786	2.821	2.854	2.862	2.869	2.892	2.928	2.969	2.990	3.002	3.017	3.032	3.058	3.208	3.291	3.165	3.081	3.095	3.109	3.117	3.121	3.125	3.127	3.133	3.144	3.161	3.180	3.196	3.207	3.220	3.234	3.247	3.263	3.278	3.292	3.304	3.316	3.330	3.346	3.361	3.402	3.601	3.699	3.607	3.453	3.446	3.454	3.462	3.468	3.477	3.486	3.541	3.597	3.525	3.519	3.526	3.544	3.554	3.565	3.582	3.602	3.622	3.639	3.656	3.674	3.695	3.714	3.733	3.753	3.774	3.798	3.822	3.843	3.860	3.875	3.919	3.970	3.928	3.924	3.933	3.944	3.967	3.978	3.992	4.009	4.028	4.042	4.052	4.063	4.075	4.085	4.094	4.100	4.105	4.130	4.143	4.159	4.159	4.169	4.179	4.190	4.200	4.209	4.236	4.312	4.293	4.254	4.264	4.279	4.291	4.302	4.312	4.322	4.333	4.350	4.407	4.387	4.390	4.455	4.413	4.359	4.350	4.335	4.319	4.306	4.306	4.285	4.261	4.248	4.238	4.229	4.222	4.218	4.217	4.216	4.213	4.204	4.188	4.168	4.151	4.134	4.116	4.100	4.084	4.071	4.058	4.042	4.023	4.002	4.000	4.120	4.088	3.918	3.869	3.839	3.807	3.771	3.742	3.708	3.666	3.634	3.611	3.589	3.553	3.526	3.501	3.474	3.442	3.406	3.370	3.335	3.302	3.270	3.237	3.207	3.177	3.150	3.121	3.090	3.061	3.030	2.997	2.960	2.902	2.853	2.811	2.779	2.768	2.741	2.696	2.668	2.643	2.611	2.549	2.491	2.462	2.443	2.425	2.405	2.383	2.368	2.378	2.388	2.368	2.338	2.305	2.275	2.249	2.225	2.209	2.191	2.156	2.198	2.236	2.106	2.076	2.228	2.299	2.191	1.970	1.914	1.889	1.867	1.846	1.822	1.834	1.995	2.066	1.985	1.764	1.648	1.615	1.579	1.541	1.505	1.469	1.430	1.389	1.347	1.302	1.257	1.208	1.157	1.107	1.058	1.013	0.972
0.733	0.735	0.752	0.749	0.738	0.728	0.719	0.711	0.708	0.706	0.709	0.717	0.727	0.741	0.758	0.770	0.799	0.912	1.034	1.014	0.904	0.994	1.095	1.018	0.858	0.845	0.852	0.858	0.861	0.870	0.880	0.889	0.898	0.908	0.916	0.924	0.933	0.945	0.959	0.975	0.990	1.004	1.018	1.033	1.046	1.060	1.076	1.092	1.108	1.125	1.146	1.162	1.177	1.189	1.231	1.313	1.244	1.227	1.242	1.256	1.270	1.286	1.305	1.318	1.329	1.347	1.361	1.365	1.413	1.422	1.391	1.397	1.402	1.406	1.408	1.407	1.403	1.401	1.401	1.401	1.407	1.540	1.680	1.658	1.480	1.366	1.356	1.345	1.331	1.318	1.308	1.350	1.397	1.343	1.281	1.275	1.275	1.281	1.288	1.297	1.335	1.370	1.338	1.347	1.361	1.374	1.389	1.405	1.420	1.431	1.444	1.458	1.476	1.495	1.511	1.520	1.525	1.532	1.538	1.547	1.557	1.564	1.568	1.590	1.590	1.561	1.551	1.543	1.540	1.537	1.534	1.530	1.528	1.509	1.494	1.586	1.698	1.585	1.531	1.552	1.568	1.638	1.670	1.627	1.631	1.648	1.665	1.681	1.693	1.704	1.717	1.731	1.748	1.767	1.820	1.854	1.816	1.821	1.834	1.846	1.886	1.975	1.953	2.069	2.074	1.934	1.917	1.923	1.931	1.944	1.959	1.975	1.991	2.008	2.025	2.040	2.053	2.063	2.070	2.086	2.201	2.230	2.131	2.133	2.173	2.210	2.242	2.331	2.278	2.246	2.266	2.288	2.307	2.320	2.332	2.343	2.354	2.361	2.375	2.393	2.412	2.434	2.494	2.571	2.515	2.532	2.570	2.596	2.626	2.714	2.822	2.759	2.752	2.786	2.788	2.781	2.802	2.826	2.851	2.897	2.951	2.968	2.982	2.994	3.010	3.109	3.183	3.091	3.049	3.064	3.077	3.088	3.093	3.094	3.095	3.099	3.111	3.130	3.150	3.166	3.178	3.191	3.205	3.218	3.232	3.247	3.263	3.275	3.288	3.302	3.315	3.332	3.358	3.473	3.561	3.474	3.415	3.422	3.434	3.445	3.452	3.461	3.467	3.481	3.496	3.492	3.500	3.508	3.519	3.529	3.544	3.563	3.584	3.603	3.621	3.640	3.660	3.682	3.704	3.723	3.744	3.765	3.789	3.813	3.834	3.851	3.866	3.939	4.020	3.933	3.912	3.922	3.947	4.052	4.017	3.979	3.997	4.012	4.019	4.025	4.034	4.043	4.053	4.062	4.070	4.082	4.095	4.139	4.211	4.143	4.130	4.140	4.147	4.153	4.160	4.169	4.182	4.196	4.213	4.219	4.233	4.246	4.257	4.268	4.279	4.289	4.298	4.306	4.308	4.408	4.544	4.473	4.322	4.303	4.292	4.276	4.295	4.397	4.347	4.225	4.203	4.193	4.185	4.181	4.177	4.182	4.184	4.166	4.155	4.139	4.122	4.105	4.086	4.069	4.052	4.036	4.023	4.009	3.990	3.970	3.950	3.938	3.998	3.969	3.855	3.816	3.787	3.755	3.720	3.684	3.648	3.614	3.584	3.554	3.526	3.501	3.474	3.447	3.419	3.391	3.365	3.326	3.287	3.254	3.220	3.187	3.155	3.124	3.096	3.065	3.032	3.000	2.968	2.934	2.896	2.842	2.793	2.753	2.729	2.784	2.794	2.650	2.606	2.579	2.552	2.517	2.463	2.418	2.389	2.369	2.355	2.349	2.355	2.357	2.339	2.312	2.285	2.256	2.229	2.204	2.180	2.230	2.239	2.121	2.097	2.085	2.038	2.011	2.041	2.076	1.996	1.897	1.864	1.839	1.818	1.800	1.777	1.751	1.772	1.803	1.733	1.641	1.604	1.571	1.534	1.496	1.461	1.425	1.387	1.346	1.302	1.257	1.210	1.160	1.112	1.063	1.017	0.972	0.931
0.700	0.692	0.707	0.713	0.704	0.692	0.682	0.675	0.673	0.674	0.679	0.688	0.699	0.714	0.727	0.741	0.865	1.112	1.212	1.200	1.065	0.892	0.932	0.873	0.811	0.814	0.822	0.828	0.832	0.840	0.847	0.854	0.863	0.871	0.880	0.889	0.900	0.920	0.925	0.940	0.954	0.968	0.983	0.997	1.010	1.024	1.040	1.055	1.071	1.088	1.109	1.126	1.140	1.152	1.182	1.232	1.194	1.189	1.202	1.216	1.230	1.246	1.263	1.278	1.291	1.363	1.412	1.348	1.421	1.430	1.367	1.369	1.375	1.379	1.382	1.380	1.377	1.375	1.374	1.372	1.392	1.601	1.726	1.710	1.536	1.347	1.322	1.309	1.294	1.279	1.265	1.254	1.246	1.244	1.245	1.244	1.244	1.249	1.255	1.264	1.272	1.283	1.295	1.311	1.325	1.338	1.353	1.369	1.382	1.393	1.406	1.421	1.439	1.459	1.475	1.486	1.494	1.501	1.509	1.519	1.531	1.540	1.543	1.543	1.540	1.532	1.520	1.513	1.510	1.507	1.505	1.502	1.500	1.491	1.466	1.484	1.533	1.498	1.506	1.516	1.527	1.540	1.558	1.577	1.595	1.613	1.630	1.647	1.663	1.675	1.689	1.703	1.717	1.735	1.753	1.766	1.778	1.790	1.800	1.812	1.852	1.941	1.887	1.897	1.904	1.874	1.880	1.889	1.896	1.905	1.924	1.935	1.947	1.960	1.976	1.992	2.005	2.016	2.024	2.029	2.049	2.065	2.067	2.083	2.101	2.123	2.198	2.323	2.256	2.197	2.219	2.241	2.259	2.272	2.283	2.295	2.306	2.314	2.327	2.348	2.373	2.397	2.453	2.519	2.516	2.571	2.561	2.558	2.584	2.672	2.781	2.720	2.714	2.740	2.722	2.735	2.763	2.787	2.817	2.882	2.915	2.935	2.945	2.954	2.962	2.981	3.003	3.005	3.017	3.033	3.046	3.056	3.062	3.063	3.065	3.070	3.082	3.101	3.120	3.136	3.150	3.162	3.175	3.188	3.202	3.220	3.236	3.249	3.261	3.273	3.284	3.301	3.319	3.344	3.372	3.375	3.386	3.399	3.413	3.427	3.436	3.442	3.446	3.451	3.461	3.469	3.478	3.487	3.497	3.508	3.524	3.544	3.565	3.584	3.603	3.625	3.648	3.673	3.696	3.717	3.735	3.756	3.779	3.797	3.816	3.838	3.853	3.873	3.892	3.888	3.896	3.906	3.931	4.040	4.005	3.963	3.978	3.988	3.993	3.997	4.003	4.012	4.022	4.031	4.038	4.048	4.060	4.096	4.141	4.095	4.090	4.099	4.103	4.108	4.115	4.125	4.141	4.217	4.308	4.261	4.197	4.204	4.215	4.227	4.240	4.251	4.260	4.265	4.255	4.328	4.444	4.371	4.254	4.251	4.249	4.234	4.264	4.389	4.345	4.188	4.158	4.147	4.139	4.137	4.134	4.186	4.224	4.125	4.108	4.102	4.075	4.056	4.036	4.019	4.001	3.987	3.973	3.958	3.939	3.919	3.899	3.874	3.849	3.821	3.792	3.764	3.735	3.703	3.667	3.633	3.598	3.563	3.530	3.499	3.470	3.444	3.417	3.389	3.362	3.353	3.414	3.333	3.238	3.205	3.170	3.136	3.103	3.073	3.042	3.011	2.977	2.942	2.908	2.873	2.836	2.794	2.744	2.706	2.682	2.697	2.697	2.597	2.599	2.530	2.488	2.462	2.436	2.406	2.377	2.356	2.346	2.342	2.332	2.311	2.286	2.260	2.234	2.208	2.184	2.157	2.130	2.152	2.158	2.071	2.041	2.016	1.987	1.959	1.930	1.900	1.869	1.841	1.816	1.791	1.770	1.750	1.727	1.702	1.676	1.649	1.618	1.588	1.560	1.527	1.489	1.451	1.414	1.378	1.340	1.299	1.257	1.210	1.161	1.112	1.065	1.019	0.973	0.927	0.887
0.667	0.657	0.665	0.680	0.674	0.663	0.653	0.646	0.644	0.647	0.654	0.663	0.677	0.691	0.702	0.722	0.920	1.168	1.247	1.238	1.130	0.869	0.768	0.771	0.777	0.785	0.791	0.797	0.802	0.808	0.814	0.833	0.897	0.870	0.847	0.856	0.890	0.977	0.920	0.907	0.918	0.930	0.944	0.958	0.973	0.988	1.002	1.018	1.035	1.052	1.072	1.088	1.100	1.113	1.124	1.135	1.145	1.152	1.164	1.177	1.192	1.207	1.223	1.238	1.254	1.305	1.342	1.319	1.334	1.334	1.333	1.338	1.343	1.349	1.353	1.353	1.349	1.347	1.344	1.341	1.346	1.491	1.636	1.616	1.435	1.300	1.283	1.269	1.253	1.239	1.226	1.218	1.215	1.214	1.214	1.226	1.258	1.228	1.219	1.227	1.235	1.244	1.256	1.270	1.288	1.303	1.316	1.331	1.343	1.355	1.368	1.384	1.404	1.423	1.439	1.453	1.462	1.470	1.481	1.492	1.506	1.526	1.522	1.515	1.510	1.501	1.490	1.483	1.479	1.477	1.478	1.475	1.473	1.469	1.458	1.450	1.454	1.466	1.474	1.482	1.494	1.508	1.524	1.541	1.559	1.577	1.595	1.615	1.649	1.675	1.666	1.678	1.689	1.705	1.719	1.732	1.745	1.756	1.765	1.777	1.790	1.808	1.810	1.816	1.823	1.833	1.842	1.852	1.860	1.876	1.956	1.931	1.903	1.915	1.930	1.945	1.966	1.978	1.979	1.984	1.990	2.004	2.020	2.038	2.056	2.075	2.099	2.140	2.142	2.150	2.171	2.193	2.213	2.226	2.238	2.250	2.260	2.269	2.285	2.308	2.335	2.359	2.386	2.486	2.692	2.789	2.749	2.595	2.546	2.581	2.620	2.640	2.675	2.696	2.676	2.696	2.724	2.748	2.792	2.906	2.904	2.900	2.909	2.916	2.925	2.937	2.951	2.962	2.979	2.999	3.015	3.024	3.030	3.033	3.036	3.043	3.056	3.074	3.092	3.107	3.119	3.131	3.143	3.157	3.174	3.193	3.209	3.223	3.234	3.245	3.255	3.271	3.291	3.311	3.330	3.346	3.361	3.378	3.393	3.406	3.417	3.422	3.425	3.428	3.439	3.447	3.456	3.466	3.476	3.489	3.506	3.525	3.543	3.563	3.584	3.609	3.636	3.664	3.688	3.707	3.724	3.745	3.770	3.833	3.835	3.823	3.837	3.849	3.857	3.867	3.878	3.888	3.899	3.923	3.935	3.945	3.955	3.963	3.969	3.972	3.975	3.982	3.990	3.999	4.007	4.014	4.022	4.032	4.040	4.045	4.054	4.100	4.125	4.082	4.073	4.083	4.116	4.308	4.423	4.361	4.185	4.168	4.179	4.191	4.205	4.218	4.236	4.257	4.238	4.221	4.232	4.216	4.198	4.201	4.205	4.190	4.178	4.209	4.182	4.132	4.114	4.101	4.094	4.078	4.059	4.079	4.102	4.064	4.107	4.160	4.050	4.001	3.985	3.965	3.946	3.933	3.922	3.906	3.889	3.871	3.850	3.826	3.796	3.765	3.738	3.713	3.683	3.650	3.614	3.578	3.544	3.508	3.474	3.442	3.414	3.386	3.357	3.331	3.308	3.309	3.388	3.299	3.184	3.151	3.118	3.083	3.049	3.018	2.987	2.955	2.921	2.887	2.852	2.815	2.777	2.738	2.698	2.661	2.626	2.593	2.560	2.543	2.584	2.486	2.430	2.403	2.382	2.365	2.347	2.330	2.313	2.296	2.277	2.255	2.234	2.210	2.186	2.161	2.138	2.111	2.084	2.060	2.039	2.015	1.992	1.964	1.937	1.910	1.881	1.850	1.820	1.793	1.767	1.742	1.719	1.697	1.676	1.654	1.631	1.606	1.576	1.544	1.513	1.480	1.444	1.406	1.368	1.333	1.295	1.252	1.207	1.159	1.111	1.065	1.018	0.971	0.927	0.882	0.841
0.636	0.623	0.630	0.649	0.646	0.637	0.628	0.623	0.621	0.626	0.636	0.646	0.659	0.670	0.680	0.693	0.860	1.115	1.200	1.190	1.073	0.818	0.729	0.740	0.750	0.755	0.758	0.762	0.767	0.773	0.778	0.834	0.960	0.883	0.813	0.824	0.845	0.899	0.871	0.871	0.881	0.892	0.906	0.920	0.935	0.950	0.965	0.980	0.996	1.014	1.035	1.051	1.063	1.075	1.088	1.099	1.107	1.114	1.125	1.130	1.140	1.169	1.189	1.206	1.224	1.244	1.273	1.389	1.400	1.307	1.300	1.307	1.312	1.316	1.321	1.322	1.319	1.317	1.313	1.309	1.303	1.318	1.388	1.371	1.285	1.255	1.243	1.228	1.212	1.200	1.189	1.185	1.192	1.240	1.210	1.257	1.362	1.260	1.184	1.191	1.199	1.207	1.217	1.230	1.248	1.265	1.279	1.293	1.306	1.319	1.332	1.347	1.368	1.387	1.403	1.418	1.430	1.440	1.455	1.481	1.494	1.566	1.529	1.486	1.481	1.471	1.460	1.454	1.451	1.449	1.450	1.449	1.446	1.443	1.438	1.435	1.435	1.435	1.441	1.450	1.463	1.476	1.490	1.506	1.523	1.540	1.561	1.593	1.716	1.761	1.653	1.652	1.665	1.678	1.690	1.701	1.713	1.723	1.732	1.743	1.756	1.766	1.774	1.780	1.788	1.798	1.807	1.816	1.824	1.840	1.912	1.888	1.864	1.877	1.889	1.906	1.985	1.998	1.937	1.941	1.949	1.963	1.978	1.994	2.012	2.029	2.047	2.063	2.081	2.103	2.125	2.147	2.176	2.210	2.214	2.207	2.215	2.228	2.246	2.268	2.294	2.319	2.359	2.574	2.799	2.873	2.855	2.697	2.521	2.532	2.561	2.594	2.631	2.659	2.644	2.656	2.683	2.708	2.731	2.780	2.837	2.866	2.921	2.911	2.889	2.903	2.918	2.929	2.946	2.968	2.984	2.993	3.001	3.006	3.011	3.020	3.049	3.134	3.119	3.083	3.093	3.105	3.117	3.132	3.150	3.167	3.185	3.199	3.208	3.217	3.227	3.244	3.265	3.286	3.305	3.321	3.336	3.353	3.371	3.386	3.396	3.400	3.402	3.406	3.415	3.424	3.433	3.444	3.455	3.469	3.486	3.505	3.522	3.541	3.564	3.592	3.621	3.651	3.675	3.693	3.709	3.728	3.753	3.840	3.836	3.805	3.819	3.830	3.839	3.850	3.861	3.870	3.881	3.894	3.910	3.923	3.932	3.941	3.957	3.990	3.957	3.954	3.961	3.970	3.982	3.981	3.986	3.995	4.003	4.007	4.067	4.238	4.282	4.157	4.041	4.040	4.071	4.246	4.361	4.299	4.140	4.134	4.155	4.228	4.218	4.187	4.284	4.414	4.375	4.220	4.167	4.164	4.158	4.158	4.163	4.147	4.127	4.109	4.099	4.143	4.104	4.057	4.037	4.004	3.990	3.985	3.982	3.984	4.038	4.088	3.991	3.947	3.933	3.913	3.896	3.884	3.875	3.857	3.839	3.821	3.803	3.778	3.748	3.716	3.687	3.662	3.633	3.599	3.561	3.524	3.489	3.453	3.419	3.387	3.359	3.330	3.300	3.275	3.250	3.224	3.206	3.165	3.125	3.096	3.061	3.026	2.992	2.961	2.931	2.898	2.864	2.830	2.794	2.758	2.718	2.677	2.639	2.605	2.571	2.538	2.505	2.472	2.449	2.409	2.378	2.351	2.329	2.309	2.290	2.271	2.252	2.234	2.218	2.200	2.179	2.156	2.134	2.111	2.088	2.063	2.038	2.014	1.989	1.965	1.940	1.913	1.885	1.859	1.830	1.801	1.773	1.746	1.718	1.690	1.667	1.646	1.626	1.602	1.577	1.556	1.549	1.592	1.542	1.441	1.398	1.359	1.318	1.283	1.248	1.205	1.158	1.109	1.061	1.014	0.969	0.923	0.877	0.834	0.794
0.607	0.594	0.605	0.625	0.621	0.612	0.607	0.606	0.604	0.609	0.619	0.628	0.639	0.649	0.658	0.667	0.730	0.928	1.046	1.027	0.875	0.713	0.700	0.709	0.718	0.724	0.724	0.726	0.729	0.734	0.740	0.762	0.825	0.799	0.779	0.790	0.798	0.807	0.819	0.831	0.842	0.855	0.869	0.884	0.897	0.911	0.926	0.941	0.959	0.979	0.998	1.014	1.027	1.040	1.052	1.062	1.067	1.074	1.084	1.082	1.091	1.130	1.153	1.173	1.194	1.213	1.253	1.422	1.435	1.288	1.268	1.275	1.281	1.284	1.288	1.289	1.288	1.285	1.283	1.277	1.270	1.260	1.252	1.244	1.231	1.217	1.205	1.190	1.175	1.164	1.155	1.152	1.163	1.233	1.186	1.200	1.289	1.205	1.151	1.158	1.166	1.173	1.181	1.192	1.207	1.224	1.239	1.253	1.267	1.282	1.296	1.311	1.331	1.351	1.369	1.385	1.398	1.405	1.443	1.569	1.532	1.484	1.467	1.455	1.450	1.441	1.431	1.427	1.423	1.421	1.422	1.420	1.419	1.417	1.415	1.408	1.402	1.403	1.408	1.417	1.429	1.441	1.456	1.471	1.487	1.505	1.528	1.557	1.647	1.683	1.616	1.623	1.638	1.650	1.662	1.673	1.684	1.694	1.703	1.714	1.726	1.734	1.743	1.750	1.757	1.766	1.773	1.778	1.784	1.792	1.804	1.814	1.830	1.843	1.855	1.868	1.915	1.924	1.892	1.899	1.909	1.924	1.938	1.954	1.971	1.987	2.005	2.023	2.047	2.075	2.084	2.112	2.244	2.372	2.343	2.208	2.172	2.185	2.205	2.227	2.250	2.275	2.319	2.551	2.767	2.840	2.827	2.672	2.478	2.486	2.516	2.548	2.581	2.614	2.623	2.621	2.644	2.671	2.698	2.747	2.802	2.827	2.903	2.889	2.856	2.871	2.887	2.901	2.919	2.940	2.956	2.965	2.974	2.982	2.991	3.001	3.071	3.223	3.182	3.073	3.074	3.086	3.099	3.113	3.130	3.146	3.161	3.173	3.184	3.193	3.202	3.217	3.237	3.258	3.276	3.291	3.308	3.328	3.348	3.362	3.370	3.374	3.376	3.380	3.389	3.400	3.410	3.421	3.435	3.451	3.467	3.487	3.504	3.521	3.546	3.574	3.604	3.635	3.658	3.676	3.693	3.710	3.728	3.755	3.772	3.784	3.798	3.810	3.820	3.832	3.843	3.853	3.864	3.877	3.890	3.900	3.909	3.919	3.951	4.013	3.942	3.930	3.951	4.047	4.112	4.057	3.968	3.957	3.963	3.967	4.068	4.266	4.302	4.178	4.008	4.001	4.017	4.073	4.137	4.108	4.082	4.103	4.135	4.261	4.231	4.164	4.310	4.450	4.414	4.225	4.130	4.127	4.122	4.126	4.125	4.106	4.084	4.064	4.053	4.092	4.055	4.008	3.974	3.947	3.940	3.935	3.928	3.918	3.935	3.937	3.908	3.893	3.882	3.866	3.851	3.841	3.829	3.811	3.792	3.773	3.756	3.732	3.703	3.670	3.640	3.612	3.583	3.549	3.509	3.472	3.436	3.401	3.368	3.335	3.307	3.279	3.248	3.218	3.189	3.159	3.126	3.097	3.067	3.036	3.002	2.971	2.935	2.903	2.871	2.838	2.806	2.771	2.734	2.698	2.658	2.619	2.585	2.552	2.519	2.493	2.481	2.446	2.393	2.359	2.331	2.305	2.279	2.256	2.235	2.235	2.224	2.176	2.158	2.141	2.121	2.098	2.078	2.059	2.035	2.011	1.989	1.965	1.941	1.915	1.896	1.877	1.836	1.806	1.779	1.753	1.726	1.697	1.669	1.642	1.618	1.596	1.573	1.549	1.520	1.502	1.569	1.697	1.629	1.423	1.351	1.308	1.270	1.233	1.200	1.158	1.110	1.062	1.013	0.963	0.919	0.875	0.829	0.785	0.746
0.586	0.571	0.589	0.602	0.597	0.591	0.590	0.591	0.589	0.592	0.599	0.607	0.616	0.625	0.635	0.644	0.652	0.685	0.752	0.733	0.679	0.667	0.674	0.681	0.689	0.694	0.695	0.694	0.695	0.722	0.757	0.719	0.723	0.734	0.744	0.753	0.761	0.769	0.781	0.791	0.802	0.817	0.831	0.843	0.867	0.893	0.884	0.899	0.919	0.941	1.020	1.087	1.044	1.003	1.012	1.021	1.027	1.033	1.043	1.055	1.069	1.091	1.112	1.134	1.156	1.186	1.221	1.272	1.282	1.232	1.234	1.243	1.251	1.255	1.258	1.259	1.258	1.256	1.252	1.246	1.237	1.227	1.219	1.211	1.197	1.182	1.169	1.154	1.140	1.129	1.122	1.119	1.120	1.126	1.121	1.119	1.128	1.119	1.117	1.123	1.130	1.136	1.144	1.154	1.166	1.183	1.199	1.215	1.230	1.245	1.262	1.279	1.312	1.321	1.332	1.347	1.359	1.368	1.395	1.501	1.471	1.411	1.417	1.421	1.417	1.410	1.404	1.399	1.393	1.392	1.390	1.389	1.388	1.389	1.384	1.375	1.369	1.369	1.372	1.380	1.389	1.402	1.416	1.432	1.450	1.471	1.494	1.517	1.533	1.550	1.574	1.592	1.609	1.622	1.633	1.646	1.656	1.665	1.675	1.685	1.694	1.702	1.710	1.718	1.723	1.731	1.737	1.739	1.743	1.752	1.764	1.777	1.794	1.808	1.820	1.830	1.838	1.846	1.852	1.860	1.871	1.885	1.901	1.916	1.932	1.948	1.966	1.984	2.048	2.111	2.050	2.085	2.308	2.436	2.414	2.227	2.131	2.143	2.163	2.184	2.206	2.229	2.255	2.387	2.616	2.711	2.681	2.502	2.409	2.437	2.469	2.500	2.530	2.563	2.602	2.620	2.635	2.662	2.703	2.746	2.768	2.781	2.799	2.812	2.823	2.837	2.852	2.870	2.888	2.907	2.924	2.938	2.950	2.962	2.973	2.985	3.012	3.092	3.077	3.045	3.056	3.068	3.081	3.095	3.110	3.124	3.137	3.148	3.160	3.181	3.187	3.192	3.210	3.227	3.244	3.261	3.282	3.305	3.324	3.336	3.345	3.349	3.350	3.354	3.365	3.376	3.388	3.402	3.416	3.433	3.451	3.470	3.486	3.504	3.528	3.556	3.587	3.617	3.642	3.661	3.678	3.694	3.712	3.729	3.748	3.765	3.778	3.789	3.800	3.814	3.825	3.835	3.846	3.858	3.867	3.880	3.890	3.900	3.909	3.919	3.910	3.909	4.008	4.223	4.291	4.230	4.019	3.921	3.923	3.929	3.969	4.115	4.158	4.034	3.953	3.962	3.977	3.992	4.002	4.018	4.044	4.070	4.089	4.125	4.122	4.114	4.182	4.313	4.278	4.137	4.097	4.094	4.096	4.100	4.117	4.095	4.042	4.021	4.004	3.991	3.976	3.964	3.925	3.910	3.951	3.931	3.876	3.863	3.878	3.877	3.852	3.838	3.829	3.817	3.803	3.791	3.779	3.762	3.744	3.726	3.708	3.686	3.657	3.641	3.677	3.640	3.546	3.499	3.461	3.423	3.385	3.349	3.315	3.283	3.254	3.226	3.193	3.160	3.127	3.093	3.059	3.035	3.006	2.975	2.950	2.976	2.915	2.845	2.810	2.776	2.746	2.712	2.678	2.643	2.606	2.570	2.538	2.504	2.472	2.531	2.641	2.593	2.407	2.311	2.284	2.259	2.232	2.207	2.184	2.228	2.247	2.130	2.103	2.084	2.065	2.044	2.025	2.009	1.989	1.968	1.945	1.920	1.895	1.868	1.896	1.928	1.804	1.756	1.729	1.705	1.679	1.650	1.622	1.595	1.571	1.545	1.520	1.496	1.473	1.453	1.488	1.598	1.536	1.362	1.307	1.266	1.225	1.190	1.157	1.114	1.064	1.013	0.962	0.914	0.869	0.825	0.782	0.739	0.698
0.559	0.556	0.578	0.580	0.575	0.572	0.572	0.574	0.574	0.576	0.580	0.586	0.595	0.602	0.610	0.618	0.621	0.624	0.638	0.644	0.640	0.644	0.663	0.687	0.667	0.664	0.665	0.664	0.665	0.697	0.742	0.687	0.687	0.697	0.707	0.716	0.734	0.787	0.764	0.750	0.761	0.775	0.787	0.798	0.872	0.937	0.852	0.855	0.875	0.952	1.163	1.253	1.174	0.997	0.971	0.980	0.986	0.991	1.002	1.014	1.030	1.049	1.070	1.092	1.113	1.187	1.247	1.176	1.175	1.188	1.222	1.212	1.215	1.222	1.228	1.229	1.227	1.223	1.218	1.213	1.204	1.194	1.186	1.176	1.163	1.147	1.132	1.119	1.107	1.097	1.091	1.086	1.083	1.083	1.082	1.080	1.078	1.078	1.081	1.085	1.090	1.097	1.106	1.116	1.130	1.146	1.161	1.177	1.193	1.208	1.225	1.286	1.407	1.349	1.294	1.330	1.372	1.350	1.343	1.360	1.365	1.368	1.378	1.384	1.382	1.379	1.374	1.369	1.362	1.360	1.359	1.358	1.356	1.355	1.347	1.340	1.336	1.334	1.334	1.341	1.350	1.360	1.376	1.392	1.412	1.434	1.457	1.482	1.500	1.526	1.544	1.558	1.575	1.588	1.600	1.613	1.627	1.638	1.647	1.655	1.661	1.667	1.672	1.680	1.685	1.692	1.696	1.699	1.708	1.713	1.726	1.741	1.755	1.767	1.779	1.789	1.797	1.807	1.815	1.821	1.831	1.846	1.861	1.875	1.890	1.908	1.925	1.940	1.969	2.002	1.995	2.029	2.209	2.349	2.319	2.147	2.098	2.142	2.123	2.137	2.158	2.181	2.204	2.237	2.332	2.412	2.395	2.345	2.359	2.391	2.424	2.456	2.487	2.521	2.561	2.599	2.633	2.664	2.691	2.711	2.726	2.743	2.759	2.772	2.790	2.805	2.820	2.837	2.855	2.875	2.894	2.910	2.927	2.940	2.953	2.964	3.009	3.080	3.053	3.027	3.040	3.054	3.065	3.077	3.091	3.100	3.111	3.123	3.143	3.235	3.218	3.170	3.185	3.200	3.217	3.235	3.259	3.281	3.297	3.309	3.318	3.323	3.325	3.332	3.344	3.357	3.369	3.383	3.398	3.415	3.433	3.451	3.469	3.490	3.514	3.541	3.571	3.600	3.625	3.645	3.661	3.676	3.693	3.711	3.731	3.747	3.760	3.771	3.782	3.794	3.806	3.817	3.827	3.838	3.845	3.857	3.872	3.881	3.887	3.888	3.888	3.885	4.019	4.247	4.303	4.251	4.024	3.886	3.887	3.893	3.897	3.915	3.925	3.915	3.917	3.928	3.942	3.959	3.972	3.990	4.014	4.037	4.054	4.067	4.086	4.094	4.083	4.101	4.099	4.083	4.078	4.076	4.074	4.077	4.175	4.154	4.014	3.980	3.963	3.949	3.935	3.925	3.892	3.924	4.059	4.029	3.864	3.815	3.831	3.823	3.804	3.790	3.776	3.763	3.750	3.737	3.725	3.710	3.694	3.677	3.660	3.639	3.611	3.664	3.796	3.752	3.554	3.449	3.412	3.376	3.338	3.301	3.264	3.231	3.201	3.170	3.138	3.105	3.070	3.035	3.002	2.974	2.944	2.914	2.890	2.914	2.855	2.786	2.751	2.716	2.689	2.661	2.629	2.596	2.562	2.528	2.494	2.460	2.442	2.592	2.700	2.655	2.438	2.269	2.238	2.214	2.189	2.162	2.135	2.135	2.122	2.069	2.052	2.034	2.014	1.994	1.998	1.991	1.946	1.925	1.904	1.879	1.853	1.827	1.830	1.836	1.748	1.707	1.683	1.659	1.632	1.603	1.575	1.547	1.520	1.493	1.467	1.443	1.421	1.402	1.383	1.376	1.341	1.295	1.302	1.263	1.191	1.164	1.119	1.068	1.019	0.968	0.914	0.863	0.817	0.774	0.734	0.693	0.651
0.547	0.572	0.568	0.561	0.555	0.553	0.554	0.556	0.556	0.559	0.563	0.568	0.575	0.579	0.584	0.590	0.592	0.599	0.672	0.664	0.613	0.620	0.708	0.789	0.684	0.635	0.635	0.635	0.638	0.641	0.644	0.643	0.652	0.660	0.670	0.678	0.706	0.810	0.756	0.711	0.734	0.740	0.743	0.754	0.791	0.828	0.801	0.813	0.834	0.950	1.178	1.254	1.189	0.986	0.932	0.940	0.948	0.953	0.963	0.975	0.989	1.007	1.028	1.049	1.070	1.101	1.133	1.123	1.130	1.152	1.234	1.182	1.176	1.185	1.191	1.194	1.192	1.189	1.183	1.175	1.166	1.158	1.149	1.138	1.124	1.109	1.096	1.086	1.073	1.063	1.057	1.053	1.049	1.047	1.046	1.045	1.044	1.045	1.046	1.047	1.051	1.058	1.068	1.079	1.092	1.107	1.122	1.138	1.154	1.169	1.185	1.261	1.389	1.324	1.294	1.467	1.550	1.470	1.325	1.312	1.323	1.332	1.342	1.347	1.345	1.342	1.337	1.334	1.330	1.325	1.321	1.323	1.321	1.317	1.309	1.303	1.301	1.300	1.301	1.306	1.312	1.322	1.336	1.351	1.371	1.396	1.422	1.445	1.480	1.580	1.545	1.523	1.539	1.553	1.566	1.581	1.597	1.611	1.619	1.625	1.628	1.631	1.636	1.642	1.647	1.653	1.657	1.673	1.751	1.710	1.688	1.699	1.710	1.722	1.734	1.745	1.757	1.769	1.777	1.784	1.795	1.810	1.825	1.837	1.851	1.869	1.882	1.894	1.910	1.926	1.945	1.963	2.016	2.097	2.081	2.030	2.085	2.158	2.083	2.087	2.107	2.130	2.153	2.174	2.198	2.225	2.253	2.282	2.315	2.349	2.384	2.417	2.449	2.480	2.516	2.553	2.586	2.619	2.647	2.669	2.686	2.742	2.809	2.765	2.756	2.773	2.790	2.807	2.825	2.845	2.864	2.882	2.900	2.916	2.930	2.942	3.052	3.197	3.127	3.015	3.023	3.037	3.050	3.061	3.072	3.081	3.090	3.100	3.113	3.160	3.165	3.151	3.164	3.177	3.193	3.210	3.233	3.253	3.267	3.278	3.287	3.293	3.299	3.309	3.324	3.339	3.352	3.365	3.380	3.398	3.417	3.435	3.454	3.474	3.501	3.530	3.559	3.586	3.608	3.627	3.643	3.658	3.675	3.692	3.711	3.728	3.742	3.753	3.763	3.774	3.786	3.798	3.808	3.819	3.828	3.838	3.850	3.858	3.863	3.864	3.863	3.860	3.928	4.133	4.209	4.134	3.927	3.851	3.854	3.859	3.864	3.866	3.870	3.878	3.887	3.897	3.912	3.930	3.946	3.964	3.984	4.003	4.020	4.048	4.178	4.209	4.090	4.047	4.050	4.054	4.053	4.049	4.040	4.033	4.074	4.050	3.968	3.941	3.923	3.932	3.950	3.892	3.864	3.893	4.007	3.971	3.809	3.779	3.784	3.763	3.746	3.736	3.721	3.707	3.693	3.680	3.668	3.654	3.640	3.624	3.607	3.587	3.561	3.611	3.741	3.695	3.496	3.397	3.363	3.329	3.292	3.255	3.217	3.181	3.148	3.116	3.085	3.051	3.015	2.982	2.948	2.915	2.885	2.856	2.825	2.796	2.763	2.731	2.700	2.666	2.637	2.611	2.582	2.551	2.518	2.486	2.454	2.421	2.394	2.494	2.610	2.562	2.353	2.221	2.193	2.168	2.145	2.119	2.090	2.064	2.041	2.020	2.004	1.987	1.966	1.947	1.980	1.988	1.903	1.878	1.859	1.838	1.812	1.786	1.757	1.738	1.746	1.713	1.648	1.615	1.586	1.557	1.529	1.500	1.470	1.442	1.416	1.392	1.370	1.349	1.327	1.301	1.273	1.255	1.331	1.283	1.171	1.222	1.122	1.020	0.973	0.942	0.960	0.891	0.775	0.725	0.685	0.645	0.602
0.644	0.687	0.564	0.541	0.536	0.535	0.536	0.535	0.536	0.540	0.545	0.550	0.554	0.555	0.558	0.562	0.565	0.570	0.609	0.609	0.584	0.589	0.641	0.708	0.632	0.604	0.606	0.606	0.608	0.608	0.607	0.610	0.618	0.623	0.631	0.640	0.651	0.672	0.669	0.681	0.781	0.746	0.704	0.715	0.726	0.738	0.754	0.771	0.790	0.845	1.023	1.108	1.027	0.898	0.892	0.901	0.909	0.917	0.926	0.937	0.950	0.966	0.986	1.006	1.025	1.042	1.060	1.082	1.107	1.115	1.120	1.121	1.134	1.144	1.149	1.153	1.153	1.150	1.145	1.135	1.125	1.117	1.107	1.094	1.081	1.069	1.059	1.050	1.038	1.027	1.023	1.017	1.007	1.011	1.011	1.008	1.008	1.010	1.010	1.011	1.014	1.022	1.031	1.041	1.054	1.067	1.081	1.098	1.113	1.128	1.144	1.166	1.201	1.199	1.302	1.525	1.598	1.539	1.337	1.275	1.287	1.296	1.303	1.307	1.305	1.300	1.295	1.295	1.294	1.287	1.279	1.285	1.283	1.276	1.269	1.264	1.262	1.262	1.263	1.268	1.276	1.285	1.297	1.312	1.332	1.359	1.385	1.410	1.441	1.511	1.500	1.490	1.503	1.518	1.534	1.551	1.568	1.582	1.590	1.594	1.595	1.598	1.603	1.608	1.612	1.615	1.620	1.638	1.719	1.675	1.649	1.659	1.668	1.678	1.690	1.703	1.717	1.730	1.740	1.750	1.763	1.778	1.791	1.801	1.815	1.887	1.952	1.908	1.870	1.880	1.898	1.914	1.930	1.944	1.957	1.969	1.993	2.020	2.022	2.038	2.058	2.079	2.101	2.124	2.150	2.178	2.208	2.239	2.273	2.309	2.346	2.381	2.412	2.442	2.474	2.507	2.538	2.572	2.604	2.630	2.648	2.729	2.830	2.755	2.723	2.740	2.758	2.778	2.797	2.816	2.836	2.854	2.873	2.892	2.908	2.921	2.988	3.108	3.051	2.984	2.999	3.016	3.033	3.044	3.055	3.065	3.072	3.080	3.091	3.105	3.120	3.133	3.146	3.158	3.172	3.187	3.206	3.223	3.234	3.244	3.254	3.261	3.269	3.282	3.299	3.317	3.334	3.348	3.364	3.385	3.406	3.424	3.441	3.458	3.487	3.520	3.549	3.573	3.592	3.608	3.616	3.623	3.649	3.675	3.692	3.708	3.722	3.734	3.744	3.756	3.768	3.780	3.790	3.799	3.808	3.816	3.824	3.830	3.836	3.841	3.836	3.834	3.837	3.900	3.955	3.895	3.827	3.821	3.824	3.829	3.833	3.837	3.843	3.864	3.885	3.871	3.883	3.899	3.915	3.934	3.952	3.968	3.985	4.027	4.204	4.238	4.089	4.016	4.018	4.021	4.018	4.014	4.007	3.993	3.971	3.946	3.924	3.904	3.883	3.916	3.964	3.859	3.823	3.807	3.825	3.793	3.738	3.739	3.729	3.704	3.686	3.678	3.666	3.651	3.638	3.624	3.611	3.597	3.583	3.567	3.550	3.544	3.582	3.541	3.522	3.479	3.388	3.347	3.315	3.283	3.248	3.209	3.170	3.133	3.100	3.066	3.031	2.996	2.963	2.931	2.897	2.861	2.829	2.800	2.771	2.740	2.703	2.663	2.644	2.614	2.582	2.558	2.535	2.507	2.475	2.444	2.414	2.381	2.345	2.329	2.367	2.324	2.217	2.171	2.148	2.123	2.101	2.078	2.049	2.020	1.998	1.978	1.962	1.944	1.922	1.903	1.891	1.877	1.850	1.827	1.810	1.790	1.767	1.743	1.724	1.813	1.925	1.886	1.697	1.574	1.540	1.511	1.482	1.452	1.420	1.398	1.378	1.342	1.318	1.296	1.273	1.249	1.221	1.194	1.198	1.159	1.105	1.146	1.055	0.970	0.924	0.955	1.055	0.967	0.746	0.671	0.632	0.595	0.554
0.627	0.649	0.539	0.520	0.517	0.516	0.515	0.514	0.515	0.520	0.526	0.528	0.526	0.531	0.532	0.533	0.536	0.542	0.545	0.548	0.553	0.555	0.557	0.569	0.567	0.570	0.573	0.574	0.575	0.574	0.574	0.578	0.583	0.588	0.594	0.602	0.610	0.615	0.619	0.632	0.690	0.678	0.664	0.676	0.686	0.694	0.710	0.727	0.744	0.764	0.803	0.835	0.834	0.837	0.848	0.857	0.866	0.876	0.886	0.897	0.910	0.925	0.945	0.965	0.981	0.998	1.033	1.170	1.295	1.287	1.149	1.079	1.090	1.101	1.106	1.110	1.111	1.107	1.102	1.094	1.086	1.124	1.164	1.087	1.039	1.029	1.019	1.010	1.000	0.993	0.982	0.946	0.930	0.943	0.972	0.973	0.974	0.975	0.975	0.975	0.978	0.986	0.994	1.003	1.013	1.025	1.040	1.056	1.072	1.085	1.100	1.114	1.127	1.139	1.213	1.421	1.512	1.443	1.268	1.237	1.249	1.259	1.265	1.311	1.360	1.306	1.255	1.253	1.253	1.252	1.247	1.244	1.241	1.234	1.226	1.221	1.218	1.218	1.221	1.228	1.237	1.247	1.259	1.276	1.296	1.323	1.376	1.403	1.400	1.420	1.439	1.454	1.467	1.483	1.501	1.521	1.538	1.552	1.560	1.564	1.565	1.565	1.569	1.574	1.576	1.578	1.581	1.589	1.602	1.603	1.609	1.617	1.626	1.634	1.646	1.658	1.672	1.688	1.699	1.714	1.728	1.744	1.756	1.765	1.792	1.971	2.072	1.982	1.843	1.840	1.854	1.869	1.883	1.895	1.907	1.918	1.933	1.950	1.969	1.991	2.011	2.034	2.062	2.077	2.105	2.135	2.167	2.200	2.234	2.270	2.306	2.339	2.370	2.400	2.431	2.465	2.496	2.529	2.562	2.588	2.607	2.636	2.669	2.676	2.689	2.709	2.730	2.752	2.772	2.791	2.810	2.829	2.849	2.868	2.884	2.898	2.910	2.935	2.940	2.963	2.986	2.994	3.011	3.026	3.038	3.047	3.055	3.065	3.077	3.089	3.104	3.115	3.127	3.139	3.152	3.166	3.181	3.195	3.205	3.215	3.221	3.228	3.237	3.252	3.274	3.296	3.315	3.330	3.348	3.370	3.392	3.411	3.427	3.448	3.477	3.509	3.537	3.559	3.576	3.591	3.585	3.592	3.615	3.656	3.676	3.692	3.704	3.717	3.728	3.740	3.751	3.761	3.769	3.775	3.782	3.788	3.796	3.823	3.920	3.951	3.852	3.799	3.811	3.810	3.804	3.799	3.798	3.796	3.798	3.802	3.806	3.811	3.817	3.892	3.950	3.855	3.855	3.870	3.886	3.903	3.918	3.933	3.947	3.966	4.042	4.063	4.001	3.988	3.989	3.991	3.989	3.983	3.974	3.958	3.936	3.915	3.891	3.869	3.844	3.828	3.821	3.793	3.773	3.749	3.722	3.704	3.690	3.684	3.671	3.650	3.632	3.621	3.611	3.599	3.585	3.569	3.557	3.543	3.527	3.511	3.491	3.543	3.665	3.596	3.409	3.359	3.328	3.297	3.268	3.237	3.201	3.162	3.123	3.085	3.050	3.015	2.979	2.946	2.914	2.882	2.847	2.810	2.775	2.746	2.719	2.690	2.644	2.598	2.583	2.566	2.533	2.509	2.490	2.463	2.434	2.406	2.375	2.341	2.306	2.268	2.231	2.196	2.158	2.126	2.105	2.080	2.060	2.039	2.012	1.983	1.961	1.940	1.923	1.905	1.883	1.862	1.844	1.825	1.805	1.784	1.764	1.743	1.720	1.697	1.694	1.869	1.978	1.942	1.751	1.543	1.503	1.475	1.434	1.404	1.371	1.390	1.397	1.298	1.264	1.242	1.221	1.196	1.168	1.139	1.109	1.074	1.037	1.004	0.959	0.917	0.872	0.870	0.942	0.859	0.685	0.625	0.586	0.546	0.505
0.518	0.519	0.504	0.499	0.497	0.497	0.494	0.491	0.493	0.498	0.503	0.504	0.499	0.506	0.505	0.505	0.511	0.517	0.520	0.521	0.522	0.521	0.531	0.600	0.565	0.532	0.536	0.541	0.541	0.541	0.541	0.543	0.548	0.552	0.558	0.563	0.568	0.572	0.574	0.581	0.594	0.607	0.619	0.631	0.641	0.652	0.664	0.681	0.699	0.719	0.739	0.757	0.772	0.788	0.799	0.809	0.820	0.832	0.845	0.889	0.978	0.999	0.943	0.927	0.937	0.953	1.069	1.322	1.432	1.430	1.296	1.074	1.050	1.058	1.063	1.068	1.067	1.063	1.059	1.053	1.050	1.150	1.232	1.093	0.996	0.986	0.977	0.968	0.961	0.955	0.925	0.886	0.884	0.886	0.923	0.938	0.939	0.940	0.939	0.937	0.940	0.948	0.957	0.964	0.973	0.984	0.999	1.017	1.033	1.045	1.057	1.070	1.081	1.093	1.110	1.187	1.259	1.223	1.186	1.198	1.210	1.218	1.240	1.399	1.492	1.398	1.228	1.209	1.208	1.205	1.202	1.199	1.197	1.190	1.183	1.179	1.174	1.172	1.176	1.184	1.195	1.213	1.225	1.237	1.262	1.302	1.430	1.459	1.373	1.382	1.402	1.457	1.474	1.450	1.466	1.486	1.505	1.518	1.526	1.530	1.531	1.531	1.535	1.538	1.539	1.538	1.540	1.545	1.553	1.560	1.567	1.576	1.583	1.598	1.608	1.611	1.625	1.643	1.660	1.676	1.692	1.707	1.719	1.726	1.744	1.882	1.986	1.896	1.792	1.797	1.809	1.823	1.839	1.865	1.870	1.872	1.887	1.903	1.921	1.943	1.964	2.018	2.095	2.043	2.061	2.093	2.126	2.160	2.195	2.231	2.263	2.293	2.324	2.357	2.391	2.425	2.453	2.485	2.518	2.543	2.564	2.587	2.611	2.633	2.656	2.680	2.705	2.727	2.746	2.767	2.788	2.807	2.827	2.845	2.860	2.872	2.883	2.895	2.920	3.041	3.068	2.984	2.990	3.006	3.020	3.031	3.042	3.054	3.064	3.075	3.086	3.096	3.107	3.131	3.163	3.171	3.163	3.172	3.180	3.188	3.193	3.200	3.210	3.227	3.251	3.277	3.295	3.312	3.330	3.351	3.373	3.395	3.414	3.435	3.463	3.494	3.524	3.544	3.561	3.578	3.576	3.578	3.601	3.638	3.659	3.676	3.688	3.699	3.710	3.721	3.732	3.740	3.745	3.749	3.756	3.763	3.772	3.881	4.079	4.112	3.971	3.795	3.788	3.784	3.779	3.775	3.775	3.775	3.776	3.777	3.783	3.790	3.793	3.827	3.855	3.818	3.827	3.842	3.857	3.873	3.884	3.896	3.915	3.919	3.927	3.938	3.950	3.958	3.969	3.980	3.963	3.965	3.946	3.914	3.894	3.884	3.862	3.836	3.808	3.783	3.762	3.743	3.723	3.702	3.674	3.652	3.639	3.629	3.611	3.594	3.577	3.565	3.556	3.544	3.527	3.515	3.501	3.487	3.470	3.453	3.433	3.461	3.560	3.494	3.344	3.303	3.274	3.246	3.217	3.185	3.151	3.116	3.100	3.071	3.021	2.965	2.929	2.898	2.864	2.832	2.797	2.759	2.724	2.695	2.671	2.644	2.608	2.566	2.548	2.525	2.494	2.467	2.448	2.459	2.440	2.369	2.335	2.303	2.266	2.230	2.194	2.158	2.121	2.089	2.063	2.039	2.018	1.998	1.973	1.949	1.936	1.921	1.890	1.870	1.852	1.830	1.807	1.795	1.771	1.743	1.721	1.698	1.674	1.650	1.636	1.757	1.885	1.847	1.647	1.488	1.525	1.520	1.394	1.354	1.324	1.307	1.292	1.242	1.213	1.191	1.170	1.145	1.116	1.086	1.056	1.023	0.985	0.946	0.905	0.864	0.821	0.773	0.739	0.685	0.626	0.583	0.542	0.500	0.459
0.481	0.479	0.478	0.477	0.475	0.478	0.476	0.468	0.469	0.474	0.478	0.481	0.482	0.483	0.481	0.481	0.485	0.491	0.493	0.493	0.490	0.488	0.501	0.589	0.536	0.494	0.498	0.501	0.502	0.500	0.499	0.502	0.507	0.513	0.519	0.523	0.526	0.528	0.529	0.535	0.546	0.558	0.570	0.583	0.596	0.608	0.617	0.633	0.654	0.675	0.695	0.712	0.727	0.741	0.749	0.759	0.775	0.788	0.861	1.077	1.222	1.245	1.146	0.955	0.896	0.911	1.067	1.335	1.430	1.431	1.319	1.071	1.005	1.011	1.017	1.020	1.021	1.019	1.015	1.008	1.000	1.033	1.067	0.997	0.953	0.944	0.935	0.925	0.919	0.910	0.888	0.847	0.838	0.849	0.888	0.898	0.899	0.902	0.900	0.898	0.902	0.910	0.918	0.924	0.932	0.944	0.959	0.975	0.992	1.005	1.017	1.028	1.038	1.050	1.065	1.080	1.098	1.119	1.140	1.156	1.167	1.176	1.199	1.364	1.456	1.360	1.183	1.160	1.157	1.154	1.153	1.152	1.149	1.143	1.138	1.134	1.128	1.126	1.130	1.139	1.156	1.235	1.230	1.200	1.267	1.332	1.340	1.360	1.328	1.342	1.372	1.503	1.532	1.428	1.432	1.452	1.471	1.483	1.488	1.490	1.491	1.493	1.495	1.498	1.499	1.500	1.501	1.505	1.513	1.521	1.528	1.537	1.553	1.651	1.657	1.577	1.583	1.599	1.615	1.636	1.655	1.668	1.678	1.685	1.692	1.719	1.762	1.743	1.740	1.752	1.763	1.777	1.807	1.931	1.908	1.834	1.843	1.861	1.922	1.948	1.922	1.952	2.006	1.993	2.019	2.050	2.080	2.114	2.151	2.188	2.220	2.253	2.285	2.320	2.354	2.386	2.410	2.439	2.473	2.500	2.524	2.548	2.573	2.599	2.625	2.654	2.678	2.699	2.720	2.742	2.764	2.784	2.804	2.821	2.835	2.846	2.858	2.873	2.904	3.032	3.056	2.966	2.971	2.986	3.002	3.016	3.029	3.039	3.049	3.061	3.072	3.082	3.148	3.313	3.426	3.406	3.271	3.166	3.159	3.165	3.169	3.176	3.187	3.204	3.230	3.254	3.275	3.294	3.313	3.333	3.356	3.379	3.401	3.423	3.448	3.477	3.505	3.527	3.545	3.562	3.579	3.588	3.598	3.620	3.681	3.717	3.677	3.680	3.690	3.701	3.709	3.716	3.721	3.724	3.731	3.739	3.748	3.863	4.065	4.098	3.971	3.786	3.764	3.758	3.753	3.749	3.748	3.751	3.754	3.757	3.761	3.768	3.770	3.772	3.778	3.786	3.801	3.815	3.830	3.842	3.851	3.887	3.966	3.912	3.888	3.900	3.913	3.922	3.973	4.009	3.997	4.087	4.030	3.898	3.863	3.852	3.830	3.802	3.774	3.747	3.722	3.698	3.676	3.655	3.633	3.612	3.593	3.575	3.557	3.541	3.524	3.511	3.502	3.490	3.476	3.464	3.448	3.433	3.416	3.396	3.375	3.358	3.349	3.314	3.273	3.245	3.218	3.190	3.161	3.127	3.115	3.201	3.319	3.330	3.227	3.017	2.880	2.846	2.815	2.783	2.748	2.713	2.679	2.650	2.625	2.600	2.572	2.540	2.512	2.483	2.455	2.429	2.407	2.436	2.415	2.325	2.293	2.261	2.226	2.191	2.156	2.121	2.084	2.052	2.049	2.055	1.990	1.956	1.933	1.920	1.994	2.009	1.877	1.836	1.817	1.810	1.878	1.948	1.909	1.777	1.684	1.655	1.630	1.604	1.579	1.577	1.631	1.596	1.486	1.433	1.439	1.423	1.340	1.305	1.276	1.248	1.220	1.191	1.165	1.142	1.120	1.094	1.064	1.034	1.003	0.969	0.931	0.891	0.850	0.810	0.767	0.720	0.671	0.625	0.579	0.537	0.498	0.458	0.417
0.449	0.447	0.449	0.451	0.457	0.520	0.508	0.447	0.445	0.460	0.477	0.467	0.457	0.458	0.457	0.457	0.460	0.464	0.465	0.464	0.460	0.456	0.455	0.463	0.457	0.455	0.458	0.461	0.458	0.454	0.453	0.458	0.465	0.470	0.476	0.482	0.482	0.482	0.481	0.485	0.495	0.505	0.519	0.533	0.548	0.560	0.569	0.586	0.608	0.632	0.652	0.669	0.685	0.700	0.711	0.719	0.730	0.752	0.946	1.211	1.319	1.341	1.279	1.053	0.867	0.869	0.966	1.219	1.337	1.335	1.200	0.984	0.956	0.960	0.966	0.970	0.972	0.971	0.966	0.959	0.952	0.943	0.934	0.922	0.911	0.901	0.892	0.883	0.879	0.872	0.866	0.840	0.820	0.836	0.856	0.855	0.856	0.858	0.857	0.858	0.861	0.867	0.877	0.882	0.890	0.903	0.916	0.931	0.949	0.963	0.977	0.989	1.000	1.011	1.025	1.041	1.058	1.077	1.096	1.111	1.123	1.152	1.232	1.279	1.257	1.180	1.118	1.109	1.105	1.103	1.104	1.101	1.100	1.096	1.092	1.089	1.083	1.083	1.088	1.095	1.112	1.167	1.172	1.161	1.218	1.271	1.250	1.267	1.286	1.303	1.334	1.422	1.420	1.385	1.399	1.417	1.434	1.444	1.448	1.450	1.450	1.454	1.477	1.477	1.461	1.461	1.464	1.468	1.474	1.481	1.488	1.496	1.519	1.645	1.648	1.542	1.544	1.559	1.575	1.596	1.614	1.626	1.635	1.642	1.653	1.666	1.678	1.689	1.699	1.709	1.719	1.731	1.754	1.852	1.844	1.789	1.798	1.830	1.982	2.008	1.891	1.892	1.914	1.941	1.973	2.003	2.033	2.067	2.103	2.143	2.182	2.216	2.249	2.284	2.318	2.349	2.374	2.401	2.426	2.454	2.486	2.511	2.537	2.564	2.600	2.684	2.678	2.672	2.693	2.714	2.736	2.757	2.777	2.794	2.807	2.821	2.837	2.854	2.874	2.906	2.928	2.936	2.954	2.970	2.986	2.999	3.010	3.021	3.032	3.045	3.055	3.072	3.303	3.526	3.627	3.624	3.505	3.250	3.139	3.143	3.149	3.157	3.168	3.183	3.208	3.231	3.253	3.275	3.296	3.317	3.341	3.365	3.388	3.410	3.432	3.459	3.484	3.507	3.523	3.539	3.606	3.649	3.588	3.611	3.762	3.810	3.685	3.659	3.665	3.675	3.685	3.694	3.698	3.703	3.708	3.715	3.724	3.758	3.884	3.926	3.813	3.745	3.737	3.731	3.726	3.722	3.722	3.727	3.732	3.736	3.740	3.744	3.748	3.752	3.757	3.765	3.778	3.791	3.804	3.813	3.820	3.853	3.929	3.875	3.854	3.865	3.875	3.885	3.899	3.920	4.064	4.181	4.127	3.924	3.834	3.816	3.793	3.766	3.738	3.710	3.684	3.658	3.631	3.605	3.583	3.561	3.542	3.527	3.510	3.490	3.473	3.460	3.450	3.438	3.424	3.410	3.396	3.381	3.361	3.339	3.316	3.294	3.268	3.240	3.214	3.187	3.160	3.146	3.174	3.107	3.186	3.425	3.514	3.508	3.428	3.238	2.928	2.796	2.765	2.736	2.705	2.673	2.639	2.609	2.582	2.556	2.528	2.498	2.471	2.443	2.417	2.392	2.365	2.340	2.309	2.275	2.249	2.220	2.186	2.153	2.118	2.083	2.049	2.022	2.083	2.133	1.996	1.948	1.905	1.883	1.963	1.985	1.850	1.802	1.781	1.877	2.085	2.155	2.121	1.963	1.705	1.612	1.585	1.558	1.530	1.504	1.478	1.448	1.415	1.382	1.346	1.316	1.288	1.260	1.257	1.256	1.180	1.145	1.119	1.094	1.070	1.043	1.013	0.980	0.947	0.912	0.873	0.834	0.794	0.755	0.715	0.670	0.630	0.590	0.534	0.492	0.454	0.416	0.377
0.413	0.416	0.421	0.424	0.428	0.494	0.482	0.419	0.427	0.537	0.638	0.560	0.442	0.431	0.431	0.430	0.433	0.438	0.439	0.447	0.465	0.448	0.424	0.419	0.417	0.417	0.417	0.417	0.413	0.410	0.410	0.414	0.421	0.426	0.431	0.435	0.431	0.433	0.433	0.436	0.445	0.456	0.470	0.485	0.499	0.511	0.522	0.541	0.566	0.589	0.610	0.627	0.644	0.659	0.670	0.677	0.687	0.718	0.966	1.210	1.311	1.333	1.277	1.083	0.843	0.830	0.852	0.964	1.093	1.083	0.971	0.909	0.907	0.909	0.913	0.916	0.919	0.918	0.913	0.914	0.919	0.900	0.889	0.880	0.870	0.861	0.852	0.844	0.840	0.838	0.835	0.832	0.821	0.814	0.811	0.810	0.811	0.812	0.812	0.814	0.819	0.825	0.832	0.840	0.849	0.860	0.872	0.886	0.905	0.921	0.935	0.948	0.960	0.970	0.984	0.999	1.017	1.036	1.049	1.063	1.078	1.189	1.366	1.361	1.182	1.097	1.127	1.084	1.055	1.052	1.052	1.052	1.050	1.047	1.045	1.044	1.043	1.044	1.049	1.058	1.071	1.089	1.103	1.123	1.152	1.185	1.209	1.228	1.247	1.263	1.329	1.406	1.334	1.341	1.363	1.380	1.392	1.402	1.408	1.410	1.442	1.575	1.693	1.687	1.565	1.444	1.420	1.427	1.431	1.439	1.446	1.454	1.466	1.490	1.496	1.490	1.506	1.523	1.539	1.558	1.574	1.586	1.595	1.603	1.614	1.628	1.640	1.649	1.658	1.666	1.674	1.685	1.697	1.717	1.730	1.739	1.753	1.775	1.858	1.882	1.835	1.846	1.870	1.897	1.925	1.954	1.984	2.020	2.057	2.098	2.140	2.177	2.211	2.247	2.281	2.309	2.336	2.361	2.386	2.416	2.448	2.477	2.504	2.532	2.567	2.643	2.645	2.646	2.668	2.688	2.708	2.729	2.749	2.767	2.783	2.799	2.823	2.841	2.854	2.877	2.899	2.918	2.937	2.954	2.969	2.980	2.990	3.003	3.016	3.031	3.026	3.115	3.424	3.595	3.681	3.696	3.605	3.365	3.138	3.124	3.131	3.140	3.150	3.164	3.184	3.206	3.233	3.258	3.276	3.300	3.324	3.348	3.373	3.396	3.417	3.440	3.463	3.485	3.499	3.513	3.571	3.617	3.566	3.580	3.679	3.715	3.638	3.624	3.628	3.638	3.650	3.668	3.680	3.685	3.687	3.694	3.703	3.710	3.723	3.730	3.716	3.712	3.710	3.715	3.709	3.700	3.700	3.716	3.737	3.728	3.718	3.721	3.724	3.728	3.732	3.740	3.754	3.768	3.779	3.785	3.790	3.797	3.809	3.812	3.821	3.831	3.840	3.849	3.854	3.867	3.986	4.103	4.045	3.861	3.797	3.779	3.755	3.728	3.701	3.674	3.645	3.616	3.585	3.557	3.535	3.513	3.495	3.481	3.462	3.443	3.426	3.412	3.400	3.386	3.370	3.357	3.344	3.327	3.306	3.280	3.256	3.232	3.205	3.178	3.153	3.127	3.100	3.121	3.202	3.115	3.301	3.503	3.562	3.552	3.481	3.339	3.052	2.765	2.715	2.688	2.659	2.630	2.599	2.569	2.540	2.513	2.484	2.457	2.431	2.405	2.380	2.362	2.325	2.293	2.260	2.231	2.206	2.175	2.141	2.112	2.080	2.046	2.016	1.989	2.004	2.015	1.960	2.016	1.918	1.843	1.836	1.826	1.793	1.766	1.760	1.960	2.152	2.198	2.164	2.039	1.740	1.567	1.541	1.513	1.484	1.455	1.426	1.395	1.366	1.346	1.301	1.268	1.243	1.217	1.245	1.259	1.141	1.099	1.072	1.045	1.019	0.990	0.959	0.926	0.891	0.854	0.816	0.779	0.741	0.703	0.664	0.623	0.646	0.667	0.529	0.449	0.410	0.372	0.335
0.381	0.386	0.389	0.392	0.390	0.393	0.390	0.387	0.408	0.562	0.673	0.589	0.423	0.403	0.404	0.404	0.406	0.409	0.415	0.527	0.641	0.585	0.425	0.388	0.384	0.381	0.375	0.371	0.367	0.366	0.367	0.371	0.377	0.381	0.383	0.384	0.385	0.384	0.382	0.388	0.398	0.409	0.422	0.437	0.450	0.462	0.477	0.498	0.524	0.550	0.571	0.590	0.607	0.619	0.628	0.634	0.643	0.659	0.848	1.116	1.225	1.248	1.185	0.962	0.786	0.786	0.796	0.810	0.839	0.847	0.848	0.856	0.858	0.859	0.860	0.859	0.858	0.863	0.863	0.931	1.007	0.903	0.846	0.837	0.828	0.819	0.812	0.805	0.799	0.797	0.796	0.789	0.779	0.769	0.764	0.763	0.764	0.765	0.766	0.770	0.776	0.781	0.785	0.795	0.807	0.816	0.826	0.841	0.859	0.876	0.888	0.901	0.914	0.926	0.939	0.956	0.974	0.993	1.010	1.030	1.034	1.154	1.339	1.334	1.153	1.156	1.258	1.171	1.022	1.002	1.001	1.002	1.002	1.012	1.007	1.000	1.002	1.005	1.012	1.022	1.036	1.053	1.068	1.087	1.116	1.149	1.172	1.189	1.204	1.212	1.243	1.285	1.283	1.302	1.324	1.339	1.347	1.354	1.362	1.392	1.603	1.827	1.907	1.903	1.809	1.575	1.391	1.382	1.387	1.395	1.403	1.412	1.424	1.433	1.441	1.451	1.468	1.486	1.504	1.523	1.539	1.549	1.557	1.566	1.577	1.588	1.597	1.607	1.615	1.624	1.632	1.640	1.651	1.663	1.675	1.690	1.707	1.722	1.743	1.765	1.783	1.802	1.825	1.852	1.882	1.911	1.942	1.977	2.015	2.054	2.095	2.134	2.172	2.208	2.241	2.269	2.294	2.320	2.339	2.371	2.412	2.443	2.473	2.501	2.531	2.561	2.592	2.620	2.644	2.665	2.683	2.702	2.722	2.741	2.759	2.805	2.927	2.943	2.855	2.858	2.880	2.899	2.918	2.936	2.949	2.959	2.970	2.983	2.999	3.014	3.007	3.114	3.428	3.593	3.675	3.693	3.607	3.372	3.128	3.109	3.116	3.124	3.133	3.146	3.161	3.189	3.295	3.323	3.264	3.279	3.304	3.328	3.356	3.382	3.402	3.422	3.442	3.492	3.531	3.495	3.507	3.526	3.539	3.554	3.576	3.596	3.595	3.597	3.607	3.618	3.627	3.640	3.661	3.667	3.670	3.675	3.681	3.687	3.690	3.687	3.683	3.681	3.688	3.766	3.744	3.681	3.707	3.855	3.948	3.879	3.739	3.698	3.700	3.702	3.707	3.716	3.728	3.741	3.752	3.757	3.759	3.763	3.769	3.777	3.787	3.797	3.804	3.809	3.813	3.867	3.874	3.874	3.834	3.772	3.756	3.738	3.716	3.688	3.659	3.630	3.601	3.570	3.539	3.514	3.490	3.469	3.451	3.434	3.416	3.397	3.379	3.364	3.351	3.335	3.320	3.306	3.291	3.273	3.250	3.223	3.196	3.171	3.142	3.116	3.090	3.063	3.037	3.021	3.030	3.007	3.300	3.483	3.537	3.528	3.463	3.333	3.070	2.733	2.670	2.642	2.613	2.587	2.557	2.526	2.497	2.470	2.442	2.415	2.388	2.362	2.358	2.408	2.312	2.249	2.217	2.189	2.164	2.128	2.095	2.066	2.041	2.010	1.982	1.954	1.922	1.897	1.888	1.915	1.872	1.830	1.797	1.777	1.754	1.729	1.722	1.920	2.113	2.156	2.115	1.992	1.695	1.522	1.497	1.468	1.438	1.407	1.375	1.344	1.328	1.369	1.285	1.228	1.199	1.204	1.255	1.162	1.083	1.051	1.023	0.995	0.968	0.937	0.905	0.871	0.836	0.798	0.760	0.724	0.688	0.651	0.612	0.575	0.624	0.657	0.504	0.407	0.366	0.329	0.292
0.366	0.352	0.353	0.355	0.355	0.356	0.357	0.362	0.371	0.430	0.501	0.440	0.379	0.374	0.375	0.376	0.414	0.417	0.394	0.564	0.683	0.621	0.415	0.338	0.334	0.337	0.333	0.326	0.322	0.322	0.323	0.326	0.332	0.336	0.336	0.335	0.337	0.338	0.338	0.343	0.351	0.363	0.377	0.391	0.404	0.416	0.432	0.455	0.482	0.510	0.532	0.558	0.619	0.611	0.587	0.592	0.598	0.607	0.674	0.884	1.032	1.055	0.957	0.776	0.726	0.738	0.749	0.760	0.772	0.784	0.796	0.804	0.809	0.810	0.809	0.806	0.803	0.809	0.815	0.921	1.018	0.889	0.799	0.798	0.792	0.774	0.769	0.763	0.757	0.755	0.752	0.743	0.730	0.719	0.716	0.705	0.716	0.721	0.723	0.728	0.735	0.741	0.744	0.751	0.760	0.771	0.783	0.797	0.814	0.829	0.839	0.851	0.865	0.877	0.891	0.908	0.928	0.948	1.024	1.113	1.040	1.028	1.134	1.130	1.032	1.139	1.243	1.155	0.982	0.957	0.953	0.953	0.967	1.071	1.040	0.961	0.960	0.965	0.973	0.984	0.997	1.013	1.032	1.050	1.079	1.108	1.129	1.146	1.162	1.175	1.196	1.223	1.243	1.262	1.282	1.297	1.303	1.309	1.316	1.439	1.748	1.908	1.967	1.962	1.892	1.707	1.404	1.336	1.339	1.345	1.356	1.367	1.380	1.391	1.401	1.411	1.429	1.448	1.468	1.486	1.502	1.511	1.518	1.527	1.539	1.548	1.556	1.564	1.572	1.583	1.591	1.599	1.608	1.619	1.631	1.646	1.663	1.682	1.703	1.724	1.742	1.761	1.783	1.809	1.839	1.872	1.905	1.939	1.975	2.012	2.050	2.090	2.129	2.166	2.200	2.227	2.246	2.282	2.309	2.340	2.378	2.410	2.443	2.473	2.502	2.533	2.572	2.594	2.618	2.640	2.659	2.679	2.699	2.717	2.734	2.847	3.039	3.057	2.903	2.835	2.856	2.876	2.896	2.914	2.927	2.937	2.947	2.960	2.975	2.991	3.002	3.040	3.316	3.521	3.615	3.619	3.515	3.248	3.096	3.096	3.102	3.111	3.140	3.201	3.191	3.181	3.326	3.352	3.248	3.255	3.281	3.308	3.338	3.363	3.382	3.402	3.421	3.487	3.542	3.476	3.482	3.501	3.518	3.537	3.554	3.571	3.572	3.580	3.593	3.604	3.612	3.620	3.638	3.650	3.665	3.666	3.659	3.662	3.664	3.660	3.654	3.653	3.656	3.697	3.689	3.659	3.790	4.020	4.086	4.043	3.841	3.681	3.675	3.678	3.683	3.691	3.702	3.715	3.724	3.728	3.729	3.729	3.736	3.743	3.753	3.761	3.764	3.766	3.768	3.798	3.791	3.752	3.738	3.725	3.711	3.695	3.674	3.646	3.615	3.585	3.555	3.525	3.495	3.470	3.447	3.426	3.405	3.387	3.367	3.346	3.327	3.312	3.298	3.283	3.269	3.255	3.239	3.219	3.195	3.167	3.137	3.109	3.080	3.054	3.029	3.001	2.974	2.946	2.916	2.921	3.199	3.394	3.454	3.449	3.390	3.259	2.977	2.681	2.628	2.601	2.573	2.546	2.515	2.484	2.454	2.426	2.399	2.371	2.341	2.313	2.298	2.320	2.253	2.203	2.182	2.153	2.122	2.087	2.054	2.028	2.003	1.974	1.950	1.922	1.889	1.865	1.846	1.880	1.989	1.968	1.819	1.745	1.720	1.693	1.669	1.758	1.963	2.029	1.984	1.825	1.570	1.478	1.454	1.425	1.425	1.438	1.356	1.298	1.269	1.256	1.218	1.185	1.156	1.161	1.209	1.105	1.035	1.003	0.972	0.943	0.914	0.884	0.851	0.817	0.779	0.739	0.701	0.666	0.634	0.598	0.561	0.522	0.495	0.473	0.410	0.365	0.326	0.288	0.250
0.355	0.315	0.314	0.317	0.321	0.324	0.330	0.337	0.342	0.348	0.352	0.349	0.346	0.343	0.344	0.355	0.470	0.482	0.359	0.433	0.534	0.464	0.325	0.294	0.285	0.280	0.285	0.284	0.279	0.277	0.277	0.285	0.297	0.292	0.291	0.289	0.290	0.292	0.293	0.295	0.303	0.317	0.333	0.349	0.362	0.375	0.389	0.412	0.440	0.468	0.492	0.519	0.590	0.576	0.547	0.551	0.555	0.565	0.579	0.619	0.702	0.725	0.676	0.662	0.674	0.686	0.700	0.712	0.723	0.734	0.743	0.751	0.757	0.760	0.757	0.755	0.757	0.760	0.762	0.792	0.830	0.774	0.750	0.801	0.815	0.732	0.720	0.717	0.722	0.777	0.750	0.700	0.687	0.679	0.676	0.668	0.673	0.676	0.681	0.688	0.694	0.701	0.703	0.709	0.718	0.731	0.742	0.754	0.769	0.781	0.791	0.802	0.813	0.823	0.837	0.857	0.878	0.909	1.065	1.174	1.071	0.948	0.954	0.959	0.954	0.988	1.037	0.982	0.922	0.913	0.908	0.906	0.913	0.981	0.959	0.928	1.001	0.999	0.940	0.943	0.957	0.969	0.987	1.009	1.036	1.063	1.081	1.100	1.113	1.140	1.161	1.183	1.201	1.216	1.235	1.250	1.258	1.263	1.270	1.438	1.757	1.898	1.950	1.944	1.879	1.720	1.407	1.286	1.288	1.295	1.307	1.325	1.334	1.348	1.360	1.367	1.388	1.411	1.431	1.448	1.462	1.471	1.479	1.488	1.497	1.505	1.513	1.519	1.526	1.539	1.549	1.557	1.587	1.639	1.604	1.605	1.623	1.643	1.665	1.683	1.701	1.722	1.744	1.769	1.800	1.833	1.866	1.902	1.934	1.968	2.005	2.045	2.090	2.119	2.153	2.185	2.213	2.250	2.284	2.317	2.349	2.381	2.414	2.446	2.477	2.520	2.628	2.601	2.588	2.611	2.635	2.653	2.673	2.692	2.711	2.787	2.954	2.974	2.849	2.814	2.835	2.855	2.875	2.892	2.905	2.913	2.924	2.935	2.949	2.965	2.986	3.005	3.113	3.334	3.441	3.421	3.272	3.099	3.075	3.080	3.085	3.119	3.295	3.424	3.396	3.236	3.201	3.221	3.211	3.233	3.258	3.284	3.313	3.344	3.373	3.382	3.398	3.417	3.437	3.444	3.460	3.479	3.498	3.518	3.536	3.553	3.553	3.561	3.576	3.587	3.595	3.603	3.620	3.651	3.763	3.736	3.646	3.638	3.637	3.634	3.628	3.626	3.626	3.625	3.629	3.639	3.808	4.029	4.084	4.046	3.858	3.660	3.649	3.653	3.657	3.666	3.679	3.691	3.698	3.702	3.701	3.700	3.706	3.713	3.720	3.725	3.725	3.725	3.726	3.724	3.719	3.707	3.695	3.682	3.667	3.648	3.629	3.602	3.572	3.539	3.508	3.478	3.450	3.424	3.401	3.379	3.358	3.334	3.307	3.293	3.274	3.257	3.243	3.229	3.217	3.203	3.185	3.162	3.135	3.106	3.076	3.047	3.017	2.990	2.966	2.940	2.912	2.884	2.854	2.835	2.983	3.217	3.306	3.310	3.248	3.085	2.776	2.613	2.584	2.559	2.533	2.505	2.474	2.444	2.414	2.381	2.344	2.311	2.282	2.260	2.239	2.212	2.183	2.161	2.206	2.155	2.080	2.053	2.019	1.993	1.968	1.941	1.917	1.892	1.864	1.838	1.821	1.935	2.091	2.070	1.870	1.717	1.688	1.661	1.632	1.617	1.673	1.729	1.688	1.559	1.464	1.435	1.411	1.384	1.418	1.478	1.345	1.254	1.222	1.195	1.170	1.143	1.114	1.086	1.065	1.025	0.990	0.957	0.922	0.889	0.859	0.828	0.794	0.758	0.719	0.680	0.644	0.611	0.580	0.546	0.536	0.590	0.581	0.478	0.373	0.325	0.288	0.250	0.211
